# .PCD v0.7 - Point Cloud Data file format
VERSION 0.7
FIELDS x y z rgb
SIZE 4 4 4 4
TYPE F F F F
COUNT 1 1 1 1
WIDTH 944
HEIGHT 1
VIEWPOINT 0 0 0 1 0 0 0
POINTS 944
DATA ascii
0.088694289 -0.015181906 0.83900005 1.3456264e-38
0.090292387 -0.015181906 0.83900005 1.5025014e-38
0.091890484 -0.015181906 0.83900005 1.6583714e-38
0.093488574 -0.015181906 0.83900005 1.6497986e-38
0.09531334 -0.015218096 0.84100002 1.6398601e-38
0.096915245 -0.015218096 0.84100002 1.5939769e-38
0.098282866 -0.015181906 0.83900005 1.547843e-38
0.099880956 -0.015181906 0.83900005 1.4928126e-38
0.10147905 -0.015181906 0.83900005 1.4370305e-38
0.10307715 -0.015181906 0.83900005 1.4094804e-38
0.10467525 -0.015181906 0.83900005 1.3822181e-38
0.10627334 -0.015181906 0.83900005 1.483705e-38
0.10787144 -0.015181906 0.83900005 1.5757186e-38
0.10946953 -0.015181906 0.83900005 1.4193101e-38
0.11133239 -0.015218096 0.84100002 1.2613172e-38
0.11293429 -0.015218096 0.84100002 1.1847208e-38
0.1145362 -0.015218096 0.84100002 1.1152808e-38
0.11641429 -0.015254287 0.84300005 1.7337819e-38
0.11802001 -0.015254287 0.84300005 2.3400025e-38
0.11934191 -0.015218096 0.84100002 2.2844336e-38
0.12123144 -0.015254287 0.84300005 2.2292251e-38
0.12283715 -0.015254287 0.84300005 2.238445e-38
-0.091906674 -0.013826667 0.85400003 1.0214998e-38
-0.090068579 -0.013794286 0.85200006 1.0033821e-38
-0.088653341 -0.013826667 0.85400003 9.9391368e-39
-0.087026671 -0.013826667 0.85400003 9.8501921e-39
-0.085600004 -0.013859048 0.85600007 9.7576392e-39
-0.083969526 -0.013859048 0.85600007 9.9452562e-39
-0.082531437 -0.01389143 0.85800004 1.0039255e-38
-0.080897145 -0.01389143 0.85800004 1.0041059e-38
-0.079447627 -0.013923811 0.86000001 1.0134698e-38
-0.07799048 -0.013956191 0.86200005 1.0318737e-38
-0.076348573 -0.013956191 0.86200005 1.0592803e-38
-0.074533336 -0.013923811 0.86000001 1.0133619e-38
-0.071878098 -0.013729525 0.84800005 9.6733483e-39
-0.070262864 -0.013729525 0.84800005 9.3045545e-39
-0.068647623 -0.013729525 0.84800005 9.0279901e-39
-0.067190483 -0.013761906 0.85000002 8.9365301e-39
-0.065571435 -0.013761906 0.85000002 8.8446932e-39
-0.064102858 -0.013794286 0.85200006 8.7528549e-39
-0.062480003 -0.013794286 0.85200006 8.6613768e-39
-0.06071429 -0.013761906 0.85000002 8.5691797e-39
-0.059373338 -0.013826667 0.85400003 8.5691811e-39
-0.057340957 -0.013729525 0.84800005 8.5688238e-39
-0.055988576 -0.013794286 0.85200006 8.5691811e-39
-0.054110479 -0.013729525 0.84800005 8.4773428e-39
-0.052309528 -0.013680954 0.84500003 8.3855073e-39
-0.050880004 -0.013729525 0.84800005 8.2933131e-39
-0.049264766 -0.013729525 0.84800005 8.2007531e-39
-0.047649525 -0.013729525 0.84800005 8.2014622e-39
-0.046142861 -0.013761906 0.85000002 8.1103526e-39
-0.044523813 -0.013761906 0.85000002 8.1100008e-39
-0.043005716 -0.013794286 0.85200006 8.2018363e-39
-0.04138286 -0.013794286 0.85200006 8.2014762e-39
-0.039666668 -0.013761906 0.85000002 8.2933117e-39
-0.038047623 -0.013761906 0.85000002 8.2925942e-39
-0.036342859 -0.013729525 0.84800005 8.2933131e-39
-0.034727622 -0.013729525 0.84800005 8.2933131e-39
-0.033190478 -0.013761906 0.85000002 8.2933173e-39
-0.031497143 -0.013729525 0.84800005 8.3844381e-39
-0.029776193 -0.013680954 0.84500003 8.5684665e-39
-0.028166668 -0.013680954 0.84500003 8.4766282e-39
-0.026557144 -0.013680954 0.84500003 8.4769841e-39
-0.024947621 -0.013680954 0.84500003 8.3847857e-39
-0.023338096 -0.013680954 0.84500003 8.3851444e-39
-0.021677144 -0.013648572 0.84300005 8.29259e-39
-0.020119049 -0.013680954 0.84500003 8.2929474e-39
-0.018509526 -0.013680954 0.84500003 8.2925858e-39
-0.016860001 -0.013648572 0.84300005 8.3844227e-39
-0.015254287 -0.013648572 0.84300005 8.2003944e-39
-0.013648572 -0.013648572 0.84300005 8.0174465e-39
-0.012042858 -0.013648572 0.84300005 8.1078527e-39
-0.010461905 -0.013680954 0.84500003 8.2929558e-39
-0.0088314293 -0.013648572 0.84300005 8.2004e-39
-0.0072085718 -0.013616191 0.84100002 8.2007615e-39
-0.0056066671 -0.013616191 0.84100002 8.10821e-39
-0.004004762 -0.013616191 0.84100002 8.0170934e-39
-0.002397143 -0.01358381 0.83900005 7.8319874e-39
-0.00079904764 -0.01358381 0.83900005 7.6497528e-39
0.00079904764 -0.01358381 0.83900005 7.7401533e-39
0.0023914287 -0.01355143 0.83700001 7.9241733e-39
0.0039857146 -0.01355143 0.83700001 7.8319678e-39
0.0055800006 -0.01355143 0.83700001 7.7415799e-39
0.0071742861 -0.01355143 0.83700001 7.7412337e-39
0.0087685715 -0.01355143 0.83700001 7.7423127e-39
0.010362858 -0.01355143 0.83700001 7.7405205e-39
0.011957143 -0.01355143 0.83700001 7.7405121e-39
0.013616191 -0.013616191 0.84100002 7.7394275e-39
0.015254287 -0.013648572 0.84300005 7.7397806e-39
0.016860001 -0.013648572 0.84300005 7.647222e-39
0.018465716 -0.013648572 0.84300005 7.5550292e-39
0.02007143 -0.013648572 0.84300005 7.4628364e-39
0.021677144 -0.013648572 0.84300005 7.3709995e-39
0.023282859 -0.013648572 0.84300005 7.4624748e-39
0.024888573 -0.013648572 0.84300005 7.6457871e-39
0.026494287 -0.013648572 0.84300005 7.5532341e-39
0.028033335 -0.013616191 0.84100002 7.4588819e-39
0.029635239 -0.013616191 0.84100002 7.5521453e-39
0.03116286 -0.01358381 0.83900005 7.5507104e-39
0.032682858 -0.01355143 0.83700001 7.0000548e-39
0.034277145 -0.01355143 0.83700001 6.5376319e-39
0.035871431 -0.01355143 0.83700001 6.5340263e-39
0.037465718 -0.01355143 0.83700001 6.5218168e-39
0.039060004 -0.01355143 0.83700001 6.9013417e-39
0.040654287 -0.01355143 0.83700001 7.3472783e-39
0.042248573 -0.01355143 0.83700001 7.2698243e-39
0.043947622 -0.01358381 0.83900005 7.1801538e-39
0.045654289 -0.013616191 0.84100002 7.829112e-39
0.047143813 -0.01358381 0.83900005 8.4690934e-39
0.048741907 -0.01358381 0.83900005 8.7499823e-39
0.050340004 -0.01358381 0.83900005 9.1133796e-39
0.051938098 -0.01358381 0.83900005 8.842538e-39
0.053536195 -0.01358381 0.83900005 8.5634428e-39
0.055134289 -0.01358381 0.83900005 8.8446876e-39
0.056732386 -0.01358381 0.83900005 9.1194794e-39
0.05833048 -0.01358381 0.83900005 9.3060231e-39
0.059928574 -0.01358381 0.83900005 9.4886165e-39
0.061673336 -0.013616191 0.84100002 9.49005e-39
0.06327524 -0.013616191 0.84100002 9.491115e-39
0.064877145 -0.013616191 0.84100002 9.3981921e-39
0.066320956 -0.01358381 0.83900005 9.3074342e-39
0.067919053 -0.01358381 0.83900005 9.4907465e-39
0.069517151 -0.01358381 0.83900005 9.5854546e-39
0.07111524 -0.01358381 0.83900005 9.5825862e-39
0.072540008 -0.01355143 0.83700001 9.5833162e-39
0.074311435 -0.01358381 0.83900005 9.7669984e-39
0.075728573 -0.01355143 0.83700001 9.9492569e-39
0.077322863 -0.01355143 0.83700001 9.9503541e-39
0.078917146 -0.01355143 0.83700001 9.9471242e-39
0.080703817 -0.01358381 0.83900005 1.0041827e-38
0.082301907 -0.01358381 0.83900005 1.0224777e-38
0.083900005 -0.01358381 0.83900005 1.0133655e-38
0.085498102 -0.01358381 0.83900005 9.9496241e-39
0.087096199 -0.01358381 0.83900005 1.0043968e-38
0.088905722 -0.013616191 0.84100002 1.0140495e-38
0.090292387 -0.01358381 0.83900005 1.0786241e-38
0.091890484 -0.01358381 0.83900005 1.1527384e-38
0.093711436 -0.013616191 0.84100002 1.1153226e-38
0.09531334 -0.013616191 0.84100002 1.0787299e-38
0.096915245 -0.013616191 0.84100002 1.078154e-38
0.09851715 -0.013616191 0.84100002 1.0882686e-38
0.099880956 -0.01358381 0.83900005 1.0781146e-38
0.10147905 -0.01358381 0.83900005 1.0777587e-38
0.10332286 -0.013616191 0.84100002 1.0689367e-38
0.10492477 -0.013616191 0.84100002 1.0696553e-38
0.10627334 -0.01358381 0.83900005 1.2723402e-38
0.10787144 -0.01358381 0.83900005 1.4846002e-38
0.10973048 -0.013616191 0.84100002 1.3732118e-38
0.11133239 -0.013616191 0.84100002 1.2607425e-38
0.11293429 -0.013616191 0.84100002 1.36197e-38
0.1145362 -0.013616191 0.84100002 1.4748746e-38
0.1161381 -0.013616191 0.84100002 1.8986924e-38
0.11802001 -0.013648572 0.84300005 2.3307839e-38
0.11934191 -0.013616191 0.84100002 2.2936535e-38
0.12094381 -0.013616191 0.84100002 2.265852e-38
0.12283715 -0.013648572 0.84300005 2.2568121e-38
-0.091906674 -0.012200001 0.85400003 1.0863962e-38
-0.090068579 -0.01217143 0.85200006 1.0776429e-38
-0.088445723 -0.01217143 0.85200006 1.0588819e-38
-0.087026671 -0.012200001 0.85400003 1.0404081e-38
-0.085600004 -0.012228572 0.85600007 1.0129294e-38
-0.084165722 -0.012257144 0.85800004 1.0129657e-38
-0.082531437 -0.012257144 0.85800004 1.0131103e-38
-0.081085719 -0.012285715 0.86000001 9.9485198e-39
-0.079632387 -0.012314286 0.86200005 9.6751672e-39
-0.07799048 -0.012314286 0.86200005 9.6751686e-39
-0.076348573 -0.012314286 0.86200005 9.674807e-39
-0.074533336 -0.012285715 0.86000001 9.5811751e-39
-0.072895244 -0.012285715 0.86000001 9.3982103e-39
-0.070760004 -0.012200001 0.85400003 9.2130932e-39
-0.069133341 -0.012200001 0.85400003 9.0297907e-39
-0.067664765 -0.012228572 0.85600007 8.9368889e-39
-0.065880008 -0.012200001 0.85400003 8.8454121e-39
-0.064403817 -0.012228572 0.85600007 8.7528605e-39
-0.062773339 -0.012228572 0.85600007 8.5695441e-39
-0.060857147 -0.01217143 0.85200006 8.477347e-39
-0.059512384 -0.012228572 0.85600007 8.3855087e-39
-0.057746671 -0.012200001 0.85400003 8.3847899e-39
-0.056251433 -0.012228572 0.85600007 8.3855059e-39
-0.054493338 -0.012200001 0.85400003 8.3847885e-39
-0.052742861 -0.01217143 0.85200006 8.2936718e-39
-0.051120002 -0.01217143 0.85200006 8.2007615e-39
-0.049497146 -0.01217143 0.85200006 8.0174437e-39
-0.04787429 -0.01217143 0.85200006 7.9256026e-39
-0.046251431 -0.01217143 0.85200006 7.8344874e-39
-0.044628575 -0.01217143 0.85200006 7.9263257e-39
-0.043106668 -0.012200001 0.85400003 7.9259655e-39
-0.041480001 -0.012200001 0.85400003 8.1089176e-39
-0.039853334 -0.012200001 0.85400003 8.2003958e-39
-0.038137145 -0.01217143 0.85200006 8.1993196e-39
-0.03651429 -0.01217143 0.85200006 8.2003972e-39
-0.03489143 -0.01217143 0.85200006 8.2011161e-39
-0.033268575 -0.01217143 0.85200006 8.1085701e-39
-0.031571429 -0.012142858 0.85000002 8.4744828e-39
-0.029952383 -0.012142858 0.85000002 8.7517815e-39
-0.028266668 -0.012114286 0.84800005 8.6595859e-39
-0.026714288 -0.012142858 0.85000002 8.5681077e-39
-0.025036192 -0.012114286 0.84800005 8.5681049e-39
-0.023420954 -0.012114286 0.84800005 8.5677448e-39
-0.021805715 -0.012114286 0.84800005 8.4748317e-39
-0.020190477 -0.012114286 0.84800005 8.2915194e-39
-0.01857524 -0.012114286 0.84800005 8.3837137e-39
-0.016900001 -0.01207143 0.84500003 8.4762652e-39
-0.015290477 -0.01207143 0.84500003 8.2003986e-39
-0.013680954 -0.01207143 0.84500003 7.9252537e-39
-0.01207143 -0.01207143 0.84500003 8.1085701e-39
-0.010461905 -0.01207143 0.84500003 8.292953e-39
-0.0088523813 -0.01207143 0.84500003 8.2929474e-39
-0.0072428575 -0.01207143 0.84500003 8.2929502e-39
-0.0056200004 -0.012042858 0.84300005 8.3847899e-39
-0.0040142857 -0.012042858 0.84300005 8.3847857e-39
-0.0024085715 -0.012042858 0.84300005 8.2922299e-39
-0.00080095243 -0.012014287 0.84100002 8.2007573e-39
0.00080095243 -0.012014287 0.84100002 8.2011217e-39
0.002397143 -0.011985715 0.83900005 8.2003986e-39
0.0039952383 -0.011985715 0.83900005 8.1996755e-39
0.0055933339 -0.011985715 0.83900005 8.2004e-39
0.0071914289 -0.011985715 0.83900005 8.2922425e-39
0.0087895244 -0.011985715 0.83900005 8.2925998e-39
0.010461905 -0.01207143 0.84500003 8.3844339e-39
0.01207143 -0.01207143 0.84500003 8.3844339e-39
0.013680954 -0.01207143 0.84500003 8.3847913e-39
0.015290477 -0.01207143 0.84500003 8.2922355e-39
0.016900001 -0.01207143 0.84500003 8.2925914e-39
0.018509526 -0.01207143 0.84500003 8.2922313e-39
0.02007143 -0.012042858 0.84300005 8.2929488e-39
0.021677144 -0.012042858 0.84300005 8.2003944e-39
0.023282859 -0.012042858 0.84300005 8.2929474e-39
0.024888573 -0.012042858 0.84300005 8.2918712e-39
0.026494287 -0.012042858 0.84300005 8.2929488e-39
0.028100003 -0.012042858 0.84300005 8.1993154e-39
0.029705716 -0.012042858 0.84300005 8.3847759e-39
0.03131143 -0.012042858 0.84300005 8.4748163e-39
0.032839049 -0.012014287 0.84100002 8.2014608e-39
0.034277145 -0.011957143 0.83700001 7.8305203e-39
0.035871431 -0.011957143 0.83700001 8.1081665e-39
0.037465718 -0.011957143 0.83700001 8.2857363e-39
0.039060004 -0.011957143 0.83700001 8.0159667e-39
0.040848576 -0.012014287 0.84100002 7.6414669e-39
0.04245048 -0.012014287 0.84100002 7.921295e-39
0.044157147 -0.012042858 0.84300005 8.1957295e-39
0.045762859 -0.012042858 0.84300005 8.1964498e-39
0.047256194 -0.012014287 0.84100002 8.19717e-39
0.048858099 -0.012014287 0.84100002 8.198249e-39
0.050460003 -0.012014287 0.84100002 8.1982518e-39
0.052061908 -0.012014287 0.84100002 7.8309112e-39
0.053663813 -0.012014287 0.84100002 7.3724512e-39
0.055265717 -0.012014287 0.84100002 7.6490325e-39
0.056732386 -0.011985715 0.83900005 7.8327049e-39
0.058469526 -0.012014287 0.84100002 7.8309112e-39
0.060071431 -0.012014287 0.84100002 7.8316287e-39
0.061673336 -0.012014287 0.84100002 7.8284001e-39
0.06327524 -0.012014287 0.84100002 7.7401449e-39
0.064877145 -0.012014287 0.84100002 7.6468689e-39
0.06647905 -0.012014287 0.84100002 7.5568299e-39
0.068080954 -0.012014287 0.84100002 7.6454382e-39
0.069682859 -0.012014287 0.84100002 7.7412211e-39
0.07111524 -0.011985715 0.83900005 7.646157e-39
0.072713338 -0.011985715 0.83900005 7.5571984e-39
0.074311435 -0.011985715 0.83900005 7.4628588e-39
0.075909525 -0.011985715 0.83900005 7.3731813e-39
0.077507623 -0.011985715 0.83900005 7.2781228e-39
0.07910572 -0.011985715 0.83900005 7.0962441e-39
0.080703817 -0.011985715 0.83900005 7.1844923e-39
0.082301907 -0.011985715 0.83900005 7.1877194e-39
0.084300004 -0.012042858 0.84300005 7.1841321e-39
0.085905723 -0.012042858 0.84300005 7.0948064e-39
0.087511435 -0.012042858 0.84300005 6.9975885e-39
0.088905722 -0.012014287 0.84100002 6.8214593e-39
0.090507627 -0.012014287 0.84100002 6.6360044e-39
0.091890484 -0.011985715 0.83900005 6.3630035e-39
0.093711436 -0.012014287 0.84100002 5.8005054e-39
0.095540009 -0.012042858 0.84300005 5.1612247e-39
0.097145721 -0.012042858 0.84300005 5.7000197e-39
0.098751433 -0.012042858 0.84300005 6.1735493e-39
0.10035715 -0.012042858 0.84300005 6.6280661e-39
0.10196286 -0.012042858 0.84300005 7.0955182e-39
0.10381429 -0.01207143 0.84500003 7.280648e-39
0.1051743 -0.012042858 0.84300005 7.4711433e-39
0.10678001 -0.012042858 0.84300005 1.0697592e-38
0.10838572 -0.012042858 0.84300005 1.3915793e-38
0.10999144 -0.012042858 0.84300005 1.3281208e-38
0.11159715 -0.012042858 0.84300005 1.2520658e-38
0.11320286 -0.012042858 0.84300005 1.5366803e-38
0.11480858 -0.012042858 0.84300005 1.8239965e-38
0.11641429 -0.012042858 0.84300005 2.0737174e-38
0.11802001 -0.012042858 0.84300005 2.3122373e-38
0.11962572 -0.012042858 0.84300005 2.3027295e-38
0.12094381 -0.012014287 0.84100002 2.2935461e-38
-0.091906674 -0.010573334 0.85400003 1.1054108e-38
-0.090068579 -0.010548572 0.85200006 1.1237074e-38
-0.088445723 -0.010548572 0.85200006 1.1419663e-38
-0.088147625 -0.010709524 0.86500007 1.1051238e-38
-0.086500004 -0.010709524 0.86500007 1.0684262e-38
-0.084165722 -0.010622858 0.85800004 1.0683551e-38
-0.082723811 -0.01064762 0.86000001 1.0682488e-38
-0.081274293 -0.010672382 0.86200005 1.1236741e-38
-0.079632387 -0.010672382 0.86200005 1.1789542e-38
-0.07799048 -0.010672382 0.86200005 1.1608375e-38
-0.076171435 -0.01064762 0.86000001 1.1421477e-38
-0.074706674 -0.010672382 0.86200005 1.1423988e-38
-0.073064767 -0.010672382 0.86200005 1.1421112e-38
-0.071257144 -0.01064762 0.86000001 1.1607289e-38
-0.069780961 -0.010672382 0.86200005 1.1879209e-38
-0.068139054 -0.010672382 0.86200005 1.1421827e-38
-0.06634286 -0.01064762 0.86000001 1.105126e-38
-0.064704768 -0.01064762 0.86000001 1.0961939e-38
-0.063066669 -0.01064762 0.86000001 1.0774676e-38
-0.061142862 -0.010598096 0.85600007 1.0684988e-38
-0.059651431 -0.010622858 0.85800004 1.0590278e-38
-0.058017146 -0.010622858 0.85800004 1.0500948e-38
-0.056382861 -0.010622858 0.85800004 1.0407319e-38
-0.054748576 -0.010622858 0.85800004 1.0409113e-38
-0.053114288 -0.010622858 0.85800004 1.0406964e-38
-0.051360004 -0.010598096 0.85600007 1.0409837e-38
-0.049729526 -0.010598096 0.85600007 1.0405888e-38
-0.048099052 -0.010598096 0.85600007 1.0225083e-38
-0.046468575 -0.010598096 0.85600007 1.0038899e-38
-0.044838097 -0.010598096 0.85600007 1.0041408e-38
-0.043207623 -0.010598096 0.85600007 1.0038536e-38
-0.041577145 -0.010598096 0.85600007 1.0039969e-38
-0.039946668 -0.010598096 0.85600007 9.9449059e-39
-0.038316194 -0.010598096 0.85600007 9.7637474e-39
-0.036685716 -0.010598096 0.85600007 9.6694036e-39
-0.035137147 -0.010622858 0.85800004 9.4875277e-39
-0.033424765 -0.010598096 0.85600007 9.3935496e-39
-0.031720001 -0.010573334 0.85400003 9.3960691e-39
-0.030093335 -0.010573334 0.85400003 9.3957104e-39
-0.028466668 -0.010573334 0.85400003 9.3042322e-39
-0.026840001 -0.010573334 0.85400003 9.3020798e-39
-0.025213335 -0.010573334 0.85400003 9.2120366e-39
-0.023476193 -0.01052381 0.85000002 9.2106003e-39
-0.021805715 -0.010499048 0.84800005 8.8418206e-39
-0.020238096 -0.01052381 0.85000002 8.4730451e-39
-0.018619049 -0.01052381 0.85000002 8.5681105e-39
-0.016960001 -0.010499048 0.84800005 8.6613768e-39
-0.015380953 -0.01052381 0.85000002 8.4769841e-39
-0.013761906 -0.01052381 0.85000002 8.2933159e-39
-0.012114286 -0.010499048 0.84800005 8.3847941e-39
-0.010499048 -0.010499048 0.84800005 8.4766212e-39
-0.0089047626 -0.01052381 0.85000002 8.4769701e-39
-0.0072857146 -0.01052381 0.85000002 8.4773344e-39
-0.0056333337 -0.010461905 0.84500003 8.4769813e-39
-0.0040238099 -0.010461905 0.84500003 8.4769729e-39
-0.0024142859 -0.010461905 0.84500003 8.3847703e-39
-0.00080285722 -0.010437144 0.84300005 8.2925858e-39
0.00080285722 -0.010437144 0.84300005 8.292953e-39
0.0024028574 -0.010412382 0.84100002 8.292953e-39
0.0039952383 -0.01038762 0.83900005 8.2007573e-39
0.0056066671 -0.010412382 0.84100002 8.2007587e-39
0.0072085718 -0.010412382 0.84100002 8.2004014e-39
0.0088314293 -0.010437144 0.84300005 8.2922327e-39
0.010437144 -0.010437144 0.84300005 8.2925872e-39
0.012114286 -0.010499048 0.84800005 8.2925942e-39
0.013761906 -0.01052381 0.85000002 8.200407e-39
0.015344763 -0.010499048 0.84800005 8.2000483e-39
0.016960001 -0.010499048 0.84800005 8.2004056e-39
0.01857524 -0.010499048 0.84800005 8.1092848e-39
0.020119049 -0.010461905 0.84500003 8.2925942e-39
0.021728573 -0.010461905 0.84500003 8.476624e-39
0.023338096 -0.010461905 0.84500003 8.3844297e-39
0.024947621 -0.010461905 0.84500003 8.3847913e-39
0.026557144 -0.010461905 0.84500003 8.3844339e-39
0.028166668 -0.010461905 0.84500003 8.3847913e-39
0.029776193 -0.010461905 0.84500003 8.3847885e-39
0.031385716 -0.010461905 0.84500003 8.4769813e-39
0.032917146 -0.010437144 0.84300005 8.2922313e-39
0.034522861 -0.010437144 0.84300005 8.1996727e-39
0.036214288 -0.010461905 0.84500003 8.2915012e-39
0.037823811 -0.010461905 0.84500003 8.4758981e-39
0.039340004 -0.010437144 0.84300005 8.2000399e-39
0.040945716 -0.010437144 0.84300005 7.9245348e-39
0.042652383 -0.010461905 0.84500003 8.107131e-39
0.044261906 -0.010461905 0.84500003 8.382992e-39
0.045871433 -0.010461905 0.84500003 8.2907922e-39
0.047368575 -0.010437144 0.84300005 8.29259e-39
0.04897429 -0.010437144 0.84300005 8.2918754e-39
0.050460003 -0.010412382 0.84100002 8.2925956e-39
0.052061908 -0.010412382 0.84100002 8.1085687e-39
0.053663813 -0.010412382 0.84100002 7.9256152e-39
0.055265717 -0.010412382 0.84100002 8.017092e-39
0.056867622 -0.010412382 0.84100002 8.1089261e-39
0.058469526 -0.010412382 0.84100002 8.1078485e-39
0.060071431 -0.010412382 0.84100002 8.1074911e-39
0.061673336 -0.010412382 0.84100002 8.1064149e-39
0.06342572 -0.010437144 0.84300005 8.1060562e-39
0.065031432 -0.010437144 0.84300005 8.0149368e-39
0.066637151 -0.010437144 0.84300005 7.9238229e-39
0.068242863 -0.010437144 0.84300005 8.0156612e-39
0.069848575 -0.010437144 0.84300005 8.0163787e-39
0.071454294 -0.010437144 0.84300005 8.0160186e-39
0.073060006 -0.010437144 0.84300005 7.9245446e-39
0.074665718 -0.010437144 0.84300005 7.9241873e-39
0.076090485 -0.010412382 0.84100002 7.8327007e-39
0.077692389 -0.010412382 0.84100002 7.7404953e-39
0.079294294 -0.010412382 0.84100002 7.740854e-39
0.080896199 -0.010412382 0.84100002 7.7394191e-39
0.082498103 -0.010412382 0.84100002 7.8308986e-39
0.084100008 -0.010412382 0.84100002 7.7383485e-39
0.085905723 -0.010437144 0.84300005 7.7372709e-39
0.087511435 -0.010437144 0.84300005 7.6450752e-39
0.089117147 -0.010437144 0.84300005 7.5528712e-39
0.090722866 -0.010437144 0.84300005 7.3695491e-39
0.092109531 -0.010412382 0.84100002 7.1812034e-39
0.09393429 -0.010437144 0.84300005 6.7202211e-39
0.095540009 -0.010437144 0.84300005 6.2545654e-39
0.097376198 -0.010461905 0.84500003 6.532562e-39
0.098985724 -0.010461905 0.84500003 6.9017214e-39
0.10059524 -0.010461905 0.84500003 7.2741081e-39
0.10220477 -0.010461905 0.84500003 7.5532215e-39
0.10381429 -0.010461905 0.84500003 7.6447165e-39
0.10542382 -0.010461905 0.84500003 7.6386265e-39
0.10703334 -0.010461905 0.84500003 8.9365273e-39
0.10838572 -0.010437144 0.84300005 1.0226215e-38
0.11025239 -0.010461905 0.84500003 9.9489585e-39
0.11186191 -0.010461905 0.84500003 9.7459089e-39
0.11320286 -0.010437144 0.84300005 1.4547892e-38
0.11480858 -0.010437144 0.84300005 1.9444265e-38
0.11641429 -0.010437144 0.84300005 2.1193117e-38
0.11802001 -0.010437144 0.84300005 2.3028741e-38
0.11962572 -0.010437144 0.84300005 2.2843984e-38
0.12123144 -0.010437144 0.84300005 2.2752508e-38
-0.088351436 -0.0090828575 0.86700004 1.1697338e-38
-0.086700007 -0.0090828575 0.86700004 1.1236725e-38
-0.085048579 -0.0090828575 0.86700004 1.1237085e-38
-0.08339715 -0.0090828575 0.86700004 1.1237096e-38
-0.081745721 -0.0090828575 0.86700004 1.2526035e-38
-0.080094293 -0.0090828575 0.86700004 1.3816396e-38
-0.078261912 -0.0090619056 0.86500007 1.354699e-38
-0.076791435 -0.0090828575 0.86700004 1.3176423e-38
-0.075140007 -0.0090828575 0.86700004 1.3364046e-38
-0.073658101 -0.0091038104 0.86900002 1.3452287e-38
-0.072002865 -0.0091038104 0.86900002 1.4099076e-38
-0.070185721 -0.0090828575 0.86700004 1.4645423e-38
-0.068534292 -0.0090828575 0.86700004 1.4004007e-38
-0.066728577 -0.0090619056 0.86500007 1.3266101e-38
-0.065080956 -0.0090619056 0.86500007 1.3177142e-38
-0.063433334 -0.0090619056 0.86500007 1.2989162e-38
-0.061785717 -0.0090619056 0.86500007 1.2897321e-38
-0.060138099 -0.0090619056 0.86500007 1.2712571e-38
-0.058490481 -0.0090619056 0.86500007 1.2529256e-38
-0.05684286 -0.0090619056 0.86500007 1.2343792e-38
-0.054876193 -0.0090095242 0.86000001 1.2437779e-38
-0.053238098 -0.0090095242 0.86000001 1.2438145e-38
-0.051600002 -0.0090095242 0.86000001 1.2626128e-38
-0.04996191 -0.0090095242 0.86000001 1.2714012e-38
-0.048323814 -0.0090095242 0.86000001 1.2529618e-38
-0.046577144 -0.0089885723 0.85800004 1.2251959e-38
-0.04494286 -0.0089885723 0.85800004 1.2254111e-38
-0.043308575 -0.0089885723 0.85800004 1.2160118e-38
-0.04167429 -0.0089885723 0.85800004 1.1975365e-38
-0.039946668 -0.0089676194 0.85600007 1.1699138e-38
-0.038405716 -0.0089885723 0.85800004 1.1424348e-38
-0.036771432 -0.0089885723 0.85800004 1.1055568e-38
-0.035137147 -0.0089885723 0.85800004 1.0869024e-38
-0.033424765 -0.0089676194 0.85600007 1.0687147e-38
-0.031868573 -0.0089885723 0.85800004 1.0411642e-38
-0.030234288 -0.0089885723 0.85800004 1.0043222e-38
-0.028600002 -0.0089885723 0.85800004 1.0043222e-38
-0.026965717 -0.0089885723 0.85800004 9.9510268e-39
-0.02533143 -0.0089885723 0.85800004 9.9513855e-39
-0.023641907 -0.0089676194 0.85600007 9.856327e-39
-0.022062859 -0.0089885723 0.85800004 9.3002974e-39
-0.020380953 -0.0089676194 0.85600007 8.6599615e-39
-0.018750478 -0.0089676194 0.85600007 8.7539507e-39
-0.017080002 -0.0089466674 0.85400003 8.845782e-39
-0.015453334 -0.0089466674 0.85400003 8.7532249e-39
-0.013826667 -0.0089466674 0.85400003 8.6617439e-39
-0.01217143 -0.0089257145 0.85200006 8.6603062e-39
-0.010548572 -0.0089257145 0.85200006 8.6617355e-39
-0.0089257145 -0.0089257145 0.85200006 8.6613726e-39
-0.0073028575 -0.0089257145 0.85200006 8.5698986e-39
-0.0056800004 -0.0089257145 0.85200006 8.5691839e-39
-0.0040571433 -0.0089257145 0.85200006 8.4777002e-39
-0.0024285717 -0.0089047626 0.85000002 8.3847815e-39
-0.00080952386 -0.0089047626 0.85000002 8.293669e-39
0.00080476195 -0.0088523813 0.84500003 8.2929572e-39
0.0024028574 -0.0088104764 0.84100002 8.2936718e-39
0.0039952383 -0.0087895244 0.83900005 8.2929516e-39
0.0056066671 -0.0088104764 0.84100002 8.2011161e-39
0.0072085718 -0.0088104764 0.84100002 8.1993238e-39
0.0089047626 -0.0089047626 0.85000002 8.2007587e-39
0.010548572 -0.0089257145 0.85200006 8.2007601e-39
0.01217143 -0.0089257145 0.85200006 8.1085701e-39
0.013794286 -0.0089257145 0.85200006 8.1071408e-39
0.015417144 -0.0089257145 0.85200006 8.1082198e-39
0.017000001 -0.0089047626 0.85000002 8.0163871e-39
0.018619049 -0.0089047626 0.85000002 7.9252593e-39
0.020190477 -0.0088838097 0.84800005 8.291874e-39
0.021805715 -0.0088838097 0.84800005 8.6592146e-39
0.023420954 -0.0088838097 0.84800005 8.5670189e-39
0.024947621 -0.0088523813 0.84500003 8.4759009e-39
0.026557144 -0.0088523813 0.84500003 8.4755436e-39
0.028166668 -0.0088523813 0.84500003 8.4759079e-39
0.029881908 -0.0088838097 0.84800005 8.4755548e-39
0.031497143 -0.0088838097 0.84800005 8.475196e-39
0.032995239 -0.0088523813 0.84500003 8.4744786e-39
0.034604765 -0.0088523813 0.84500003 8.474473e-39
0.036428574 -0.0089047626 0.85000002 8.5659441e-39
0.038137145 -0.0089257145 0.85200006 8.5670217e-39
0.039666668 -0.0089047626 0.85000002 8.3829948e-39
0.041285716 -0.0089047626 0.85000002 8.1989679e-39
0.042904764 -0.0089047626 0.85000002 8.3826431e-39
0.044523813 -0.0089047626 0.85000002 8.4751904e-39
0.045871433 -0.0088523813 0.84500003 8.4744674e-39
0.047480956 -0.0088523813 0.84500003 8.3837123e-39
0.049090479 -0.0088523813 0.84500003 8.3833577e-39
0.050580002 -0.0088314293 0.84300005 8.3844339e-39
0.052185718 -0.0088314293 0.84300005 8.3844325e-39
0.053791434 -0.0088314293 0.84300005 8.3847913e-39
0.055397145 -0.0088314293 0.84300005 8.3847913e-39
0.057002861 -0.0088314293 0.84300005 8.292953e-39
0.058608577 -0.0088314293 0.84300005 8.3844255e-39
0.060214289 -0.0088314293 0.84300005 8.3833521e-39
0.061820004 -0.0088314293 0.84300005 8.3833563e-39
0.06342572 -0.0088314293 0.84300005 8.3826319e-39
0.065031432 -0.0088314293 0.84300005 8.3826263e-39
0.066637151 -0.0088314293 0.84300005 8.291874e-39
0.068404764 -0.0088523813 0.84500003 8.2929572e-39
0.070262864 -0.0088838097 0.84800005 8.2925984e-39
0.072217144 -0.0089257145 0.85200006 8.2925998e-39
0.073840007 -0.0089257145 0.85200006 8.2925956e-39
0.074842863 -0.0088523813 0.84500003 8.2933103e-39
0.076904766 -0.0089047626 0.85000002 8.2929502e-39
0.078061908 -0.0088523813 0.84500003 8.2933075e-39
0.079482861 -0.0088314293 0.84300005 8.2929432e-39
0.081280954 -0.0088523813 0.84500003 8.3851332e-39
0.082694292 -0.0088314293 0.84300005 8.4758967e-39
0.084300004 -0.0088314293 0.84300005 8.3844241e-39
0.085905723 -0.0088314293 0.84300005 8.2911509e-39
0.087511435 -0.0088314293 0.84300005 8.2918642e-39
0.08932858 -0.0088523813 0.84500003 8.2911411e-39
0.090938099 -0.0088523813 0.84500003 8.2000175e-39
0.092328578 -0.0088314293 0.84300005 8.0127535e-39
0.094157152 -0.0088523813 0.84500003 7.6446871e-39
0.095766671 -0.0088523813 0.84500003 7.2730291e-39
0.097376198 -0.0088523813 0.84500003 7.4577651e-39
0.098985724 -0.0088523813 0.84500003 7.6425263e-39
0.10095239 -0.0088838097 0.84800005 7.8301573e-39
0.10256763 -0.0088838097 0.84800005 8.0141997e-39
0.10418286 -0.0088838097 0.84800005 7.9223768e-39
0.10542382 -0.0088523813 0.84500003 7.8283945e-39
0.10703334 -0.0088523813 0.84500003 7.1841167e-39
0.10864286 -0.0088523813 0.84500003 6.5452227e-39
0.11025239 -0.0088523813 0.84500003 6.7260308e-39
0.11186191 -0.0088523813 0.84500003 6.9115347e-39
0.11347143 -0.0088523813 0.84500003 1.3818249e-38
0.11508096 -0.0088523813 0.84500003 2.0635259e-38
0.11669049 -0.0088523813 0.84500003 2.1746272e-38
0.11830001 -0.0088523813 0.84500003 2.2844706e-38
0.11990953 -0.0088523813 0.84500003 2.2658878e-38
0.12151906 -0.0088523813 0.84500003 2.2475206e-38
-0.08875905 -0.0074657146 0.87100005 1.1053434e-38
-0.087100007 -0.0074657146 0.87100005 1.0777204e-38
-0.085440956 -0.0074657146 0.87100005 1.0593528e-38
-0.083781913 -0.0074657146 0.87100005 1.0318751e-38
-0.081934288 -0.0074485717 0.86900002 1.1424376e-38
-0.080279052 -0.0074485717 0.86900002 1.2443903e-38
-0.078442864 -0.0074314289 0.86700004 1.2349565e-38
-0.077145718 -0.0074657146 0.87100005 1.2352803e-38
-0.075486675 -0.0074657146 0.87100005 1.2257748e-38
-0.073827624 -0.0074657146 0.87100005 1.2169492e-38
-0.072002865 -0.0074485717 0.86900002 1.2533958e-38
-0.070347622 -0.0074485717 0.86900002 1.2997433e-38
-0.06885048 -0.0074657146 0.87100005 1.2625062e-38
-0.067191429 -0.0074657146 0.87100005 1.2259883e-38
-0.065532386 -0.0074657146 0.87100005 1.2349219e-38
-0.063580006 -0.0074314289 0.86700004 1.2444279e-38
-0.061928574 -0.0074314289 0.86700004 1.2349568e-38
-0.060277145 -0.0074314289 0.86700004 1.2353514e-38
-0.058625717 -0.0074314289 0.86700004 1.2165178e-38
-0.05684286 -0.007414286 0.86500007 1.2072625e-38
-0.055195242 -0.007414286 0.86500007 1.2164819e-38
-0.053547621 -0.007414286 0.86500007 1.226061e-38
-0.051900003 -0.007414286 0.86500007 1.2536127e-38
-0.050252385 -0.007414286 0.86500007 1.290669e-38
-0.048604764 -0.007414286 0.86500007 1.262472e-38
-0.046794288 -0.0073885717 0.86200005 1.2439974e-38
-0.045152385 -0.0073885717 0.86200005 1.2532887e-38
-0.043510478 -0.0073885717 0.86200005 1.2627584e-38
-0.041868575 -0.0073885717 0.86200005 1.2532511e-38
-0.040226668 -0.0073885717 0.86200005 1.2533941e-38
-0.038584765 -0.0073885717 0.86200005 1.2440663e-38
-0.036942858 -0.0073885717 0.86200005 1.2442809e-38
-0.035300955 -0.0073885717 0.86200005 1.2439213e-38
-0.033659048 -0.0073885717 0.86200005 1.2441e-38
-0.032128572 -0.007414286 0.86500007 1.1426496e-38
-0.03037524 -0.0073885717 0.86200005 1.0414512e-38
-0.028733335 -0.0073885717 0.86200005 1.050563e-38
-0.027028574 -0.0073714289 0.86000001 1.059854e-38
-0.025390478 -0.0073714289 0.86000001 1.059818e-38
-0.023752382 -0.0073714289 0.86000001 1.0687518e-38
-0.022114288 -0.0073714289 0.86000001 1.0502784e-38
-0.020476192 -0.0073714289 0.86000001 1.0316603e-38
-0.018881906 -0.0073885717 0.86200005 1.0594981e-38
-0.017200001 -0.0073714289 0.86000001 1.0867613e-38
-0.015525715 -0.007354286 0.85800004 1.068609e-38
-0.01389143 -0.007354286 0.85800004 1.0500617e-38
-0.012228572 -0.0073371432 0.85600007 1.0778625e-38
-0.010598096 -0.0073371432 0.85600007 1.1052697e-38
-0.0089466674 -0.0073200003 0.85400003 1.0778983e-38
-0.0073200003 -0.0073200003 0.85400003 1.0499889e-38
-0.005706667 -0.0073371432 0.85600007 1.0502759e-38
-0.0040761908 -0.0073371432 0.85600007 1.0500243e-38
-0.0024457145 -0.0073371432 0.85600007 1.0410555e-38
-0.00082095241 -0.0073885717 0.86200005 1.0224015e-38
0.00082095241 -0.0073885717 0.86200005 1.0318722e-38
0.0024628574 -0.0073885717 0.86200005 1.0499519e-38
0.0041047623 -0.0073885717 0.86200005 1.0317995e-38
0.0057466673 -0.0073885717 0.86200005 1.0131455e-38
0.0073714289 -0.0073714289 0.86000001 1.0041055e-38
0.0089676194 -0.0073371432 0.85600007 1.0038549e-38
0.010598096 -0.0073371432 0.85600007 9.9488702e-39
0.012257144 -0.007354286 0.85800004 9.854169e-39
0.013859048 -0.0073371432 0.85600007 9.856683e-39
0.015489525 -0.0073371432 0.85600007 9.8545362e-39
0.017080002 -0.0073200003 0.85400003 9.6730232e-39
0.018662859 -0.0073028575 0.85200006 9.5793772e-39
0.020285716 -0.0073028575 0.85200006 9.5804366e-39
0.021857144 -0.0072857146 0.85000002 9.6683232e-39
0.023476193 -0.0072857146 0.85000002 9.4871605e-39
0.025036192 -0.0072685718 0.84800005 9.3946076e-39
0.026651431 -0.0072685718 0.84800005 9.2127303e-39
0.028266668 -0.0072685718 0.84800005 9.1187564e-39
0.029881908 -0.0072685718 0.84800005 9.1202039e-39
0.031497143 -0.0072685718 0.84800005 9.116618e-39
0.033112384 -0.0072685718 0.84800005 9.2113248e-39
0.034809526 -0.0072857146 0.85000002 9.3010037e-39
0.036600001 -0.0073200003 0.85400003 9.3949859e-39
0.038405716 -0.007354286 0.85800004 9.3946244e-39
0.040040001 -0.007354286 0.85800004 9.0272796e-39
0.041480001 -0.0073200003 0.85400003 8.6570734e-39
0.043106668 -0.0073200003 0.85400003 8.7517829e-39
0.044628575 -0.0073028575 0.85200006 8.844689e-39
0.046034288 -0.0072685718 0.84800005 8.7521291e-39
0.047649525 -0.0072685718 0.84800005 8.659223e-39
0.049264766 -0.0072685718 0.84800005 8.659946e-39
0.050700005 -0.0072428575 0.84500003 8.5691825e-39
0.052309528 -0.0072428575 0.84500003 8.4769841e-39
0.053919051 -0.0072428575 0.84500003 8.4769841e-39
0.055528574 -0.0072428575 0.84500003 8.3851486e-39
0.0571381 -0.0072428575 0.84500003 8.3847843e-39
0.058747623 -0.0072428575 0.84500003 8.2922257e-39
0.060357146 -0.0072428575 0.84500003 8.2911551e-39
0.061966673 -0.0072428575 0.84500003 8.2918782e-39
0.063576192 -0.0072428575 0.84500003 8.2915082e-39
0.065185718 -0.0072428575 0.84500003 8.2000189e-39
0.066795245 -0.0072428575 0.84500003 8.2007475e-39
0.068647623 -0.0072685718 0.84800005 8.2007573e-39
0.070594288 -0.0073028575 0.85200006 8.2007601e-39
0.072386675 -0.0073200003 0.85400003 8.2000441e-39
0.074013337 -0.0073200003 0.85400003 8.2000357e-39
0.075640008 -0.0073200003 0.85400003 8.2003846e-39
0.077266671 -0.0073200003 0.85400003 8.2011105e-39
0.078708574 -0.0073028575 0.85200006 8.2004e-39
0.080331437 -0.0073028575 0.85200006 8.2007503e-39
0.081954293 -0.0073028575 0.85200006 8.2007405e-39
0.083184764 -0.0072685718 0.84800005 8.2929404e-39
0.084500007 -0.0072428575 0.84500003 8.384064e-39
0.086109526 -0.0072428575 0.84500003 8.4755352e-39
0.088238098 -0.0072857146 0.85000002 8.3836941e-39
0.089857146 -0.0072857146 0.85000002 8.2929334e-39
0.091476195 -0.0072857146 0.85000002 8.291497e-39
0.093095243 -0.0072857146 0.85000002 8.2900607e-39
0.094714291 -0.0072857146 0.85000002 7.9198475e-39
0.096106671 -0.0072685718 0.84800005 7.4588749e-39
0.097952388 -0.0072857146 0.85000002 7.6429032e-39
0.099571437 -0.0072857146 0.85000002 7.8294483e-39
0.10119049 -0.0072857146 0.85000002 8.0141997e-39
0.10280953 -0.0072857146 0.85000002 8.2000301e-39
0.10442858 -0.0072857146 0.85000002 8.2000371e-39
0.10604762 -0.0072857146 0.85000002 8.2007587e-39
0.10766667 -0.0072857146 0.85000002 7.5554019e-39
0.10902858 -0.0072685718 0.84800005 6.9121667e-39
0.11064382 -0.0072685718 0.84800005 8.0069886e-39
0.11225905 -0.0072685718 0.84800005 9.1112524e-39
0.11347143 -0.0072428575 0.84500003 1.5018226e-38
0.11548954 -0.0072685718 0.84800005 2.1011931e-38
0.11669049 -0.0072428575 0.84500003 2.1374971e-38
0.11830001 -0.0072428575 0.84500003 2.1833075e-38
0.11990953 -0.0072428575 0.84500003 2.173873e-38
0.12123144 -0.0072257146 0.84300005 2.164725e-38
-0.08896286 -0.0058200005 0.87300003 1.0408404e-38
-0.087300003 -0.0058200005 0.87300003 1.0315493e-38
-0.085637152 -0.0058200005 0.87300003 9.8566759e-39
-0.083974294 -0.0058200005 0.87300003 9.3978656e-39
-0.082311437 -0.0058200005 0.87300003 1.0224752e-38
-0.080648579 -0.0058200005 0.87300003 1.1055579e-38
-0.078804769 -0.0058066673 0.87100005 1.1237818e-38
-0.077322863 -0.0058200005 0.87300003 1.1423649e-38
-0.075660005 -0.0058200005 0.87300003 1.1144203e-38
-0.073827624 -0.0058066673 0.87100005 1.0780447e-38
-0.072168574 -0.0058066673 0.87100005 1.1053441e-38
-0.070509531 -0.0058066673 0.87100005 1.1240342e-38
-0.06885048 -0.0058066673 0.87100005 1.123855e-38
-0.067191429 -0.0058066673 0.87100005 1.1240699e-38
-0.065532386 -0.0058066673 0.87100005 1.1514768e-38
-0.063726671 -0.0057933335 0.86900002 1.1793144e-38
-0.062214289 -0.0058066673 0.87100005 1.1886057e-38
-0.060416196 -0.0057933335 0.86900002 1.1886782e-38
-0.058760956 -0.0057933335 0.86900002 1.179639e-38
-0.056974288 -0.0057800002 0.86700004 1.1702399e-38
-0.055322859 -0.0057800002 0.86700004 1.1888577e-38
-0.053671431 -0.0057800002 0.86700004 1.1980781e-38
-0.052020002 -0.0057800002 0.86700004 1.2534315e-38
-0.050368574 -0.0057800002 0.86700004 1.2991333e-38
-0.048717145 -0.0057800002 0.86700004 1.2805504e-38
-0.047065716 -0.0057800002 0.86700004 1.2622192e-38
-0.045309525 -0.005766667 0.86500007 1.2900927e-38
-0.043661907 -0.005766667 0.86500007 1.3084239e-38
-0.04201429 -0.005766667 0.86500007 1.3176435e-38
-0.040366668 -0.005766667 0.86500007 1.3267544e-38
-0.038808573 -0.0057800002 0.86700004 1.3545195e-38
-0.037071429 -0.005766667 0.86500007 1.3819619e-38
-0.035505716 -0.0057800002 0.86700004 1.4003642e-38
-0.033854287 -0.0057800002 0.86700004 1.4093687e-38
-0.032202858 -0.0057800002 0.86700004 1.2438856e-38
-0.03055143 -0.0057800002 0.86700004 1.0783303e-38
-0.028833335 -0.005766667 0.86500007 1.0966612e-38
-0.027185716 -0.005766667 0.86500007 1.1150995e-38
-0.025538096 -0.005766667 0.86500007 1.1338608e-38
-0.023890479 -0.005766667 0.86500007 1.1428301e-38
-0.022345716 -0.0057933335 0.86900002 1.170597e-38
-0.020642858 -0.0057800002 0.86700004 1.1978615e-38
-0.018991429 -0.0057800002 0.86700004 1.2441389e-38
-0.0173 -0.005766667 0.86500007 1.2896609e-38
-0.015652383 -0.005766667 0.86500007 1.2622169e-38
-0.014004763 -0.005766667 0.86500007 1.2345951e-38
-0.012357144 -0.005766667 0.86500007 1.2901274e-38
-0.010672382 -0.0057466673 0.86200005 1.3449412e-38
-0.0090304771 -0.0057466673 0.86200005 1.2901623e-38
-0.0073885717 -0.0057466673 0.86200005 1.2347029e-38
-0.0057466673 -0.0057466673 0.86200005 1.2442098e-38
-0.0041190479 -0.005766667 0.86500007 1.2530697e-38
-0.0024714288 -0.005766667 0.86500007 1.234917e-38
-0.00082095241 -0.0057466673 0.86200005 1.2162633e-38
0.00082380959 -0.005766667 0.86500007 1.2441374e-38
0.002477143 -0.0057800002 0.86700004 1.262109e-38
0.0041190479 -0.005766667 0.86500007 1.234737e-38
0.005766667 -0.005766667 0.86500007 1.1976448e-38
0.007414286 -0.005766667 0.86500007 1.1977889e-38
0.0090095242 -0.0057333335 0.86000001 1.1884617e-38
0.01064762 -0.0057333335 0.86000001 1.1701661e-38
0.012285715 -0.0057333335 0.86000001 1.1516196e-38
0.013923811 -0.0057333335 0.86000001 1.1519067e-38
0.015525715 -0.0057200002 0.85800004 1.1516194e-38
0.017120002 -0.005706667 0.85600007 1.1425793e-38
0.018794287 -0.0057200002 0.85800004 1.1239966e-38
0.020333335 -0.0056933337 0.85400003 1.0965174e-38
0.021960001 -0.0056933337 0.85400003 1.0595316e-38
0.023531429 -0.0056800004 0.85200006 1.0410922e-38
0.025095239 -0.0056666671 0.85000002 1.0227254e-38
0.026714288 -0.0056666671 0.85000002 1.0045736e-38
0.028333336 -0.0056666671 0.85000002 9.7691536e-39
0.029952383 -0.0056666671 0.85000002 9.769511e-39
0.031645715 -0.0056800004 0.85200006 9.7677201e-39
0.033268575 -0.0056800004 0.85200006 9.9524687e-39
0.034973335 -0.0056933337 0.85400003 1.0133986e-38
0.036685716 -0.005706667 0.85600007 1.0226539e-38
0.038405716 -0.0057200002 0.85800004 1.0225463e-38
0.040040001 -0.0057200002 0.85800004 9.6737322e-39
0.04167429 -0.0057200002 0.85800004 9.029809e-39
0.043106668 -0.0056933337 0.85400003 9.122006e-39
0.044628575 -0.0056800004 0.85200006 9.1219962e-39
0.046142861 -0.0056666671 0.85000002 9.0294334e-39
0.04776191 -0.0056666671 0.85000002 8.9376063e-39
0.049380954 -0.0056666671 0.85000002 8.8447044e-39
0.050880004 -0.0056533339 0.84800005 8.7535836e-39
0.052495241 -0.0056533339 0.84800005 8.6610292e-39
0.054110479 -0.0056533339 0.84800005 8.4780701e-39
0.05572572 -0.0056533339 0.84800005 8.4769883e-39
0.057476193 -0.0056666671 0.85000002 8.3858647e-39
0.058956195 -0.0056533339 0.84800005 8.2925886e-39
0.06071429 -0.0056666671 0.85000002 8.2011189e-39
0.062480003 -0.0056800004 0.85200006 8.2007672e-39
0.063801907 -0.0056533339 0.84800005 8.2011133e-39
0.065417148 -0.0056533339 0.84800005 8.108189e-39
0.067506671 -0.0056933337 0.85400003 8.0170793e-39
0.068971433 -0.0056800004 0.85200006 8.0163689e-39
0.070594288 -0.0056800004 0.85200006 8.0163759e-39
0.072217144 -0.0056800004 0.85200006 8.1071436e-39
0.074013337 -0.0056933337 0.85400003 8.1078513e-39
0.075817145 -0.005706667 0.85600007 8.1074827e-39
0.077266671 -0.0056933337 0.85400003 8.0160088e-39
0.078708574 -0.0056800004 0.85200006 8.0149354e-39
0.080331437 -0.0056800004 0.85200006 8.0160031e-39
0.081954293 -0.0056800004 0.85200006 8.0163535e-39
0.083577149 -0.0056800004 0.85200006 8.016715e-39
0.084800005 -0.0056533339 0.84800005 8.3826263e-39
0.086619057 -0.0056666671 0.85000002 8.6581356e-39
0.088445723 -0.0056800004 0.85200006 8.47411e-39
0.090068579 -0.0056800004 0.85200006 8.1996755e-39
0.091691434 -0.0056800004 0.85200006 8.3826263e-39
0.09331429 -0.0056800004 0.85200006 8.5641407e-39
0.094937146 -0.0056800004 0.85200006 8.1013731e-39
0.096560009 -0.0056800004 0.85200006 7.6414711e-39
0.098182864 -0.0056800004 0.85200006 7.8254924e-39
0.09980572 -0.0056800004 0.85200006 8.012406e-39
0.10142858 -0.0056800004 0.85200006 8.197526e-39
0.10305144 -0.0056800004 0.85200006 8.291874e-39
0.10492001 -0.0056933337 0.85400003 8.3847871e-39
0.10629715 -0.0056800004 0.85200006 8.4762568e-39
0.10817334 -0.0056933337 0.85400003 7.8326839e-39
0.10954286 -0.0056800004 0.85200006 7.179065e-39
0.11116572 -0.0056800004 0.85200006 9.1861644e-39
0.11252382 -0.0056666671 0.85000002 1.1236394e-38
0.11414286 -0.0056666671 0.85000002 1.6315043e-38
0.11548954 -0.0056533339 0.84800005 2.1278108e-38
0.11710477 -0.0056533339 0.84800005 2.1092287e-38
0.11830001 -0.0056333337 0.84500003 2.0816778e-38
0.11990953 -0.0056333337 0.84500003 2.0814983e-38
-0.08896286 -0.0041571432 0.87300003 1.0037085e-38
-0.087500006 -0.0041666669 0.87500006 1.0219688e-38
-0.085833341 -0.0041666669 0.87500006 1.0591702e-38
-0.084166676 -0.0041666669 0.87500006 1.1048015e-38
-0.082500003 -0.0041666669 0.87500006 1.1328548e-38
-0.080648579 -0.0041571432 0.87300003 1.1601182e-38
-0.079166673 -0.0041666669 0.87500006 1.1696602e-38
-0.077500008 -0.0041666669 0.87500006 1.1877407e-38
-0.075833336 -0.0041666669 0.87500006 1.1605492e-38
-0.073997147 -0.0041571432 0.87300003 1.1417879e-38
-0.07233429 -0.0041571432 0.87300003 1.1420395e-38
-0.070671432 -0.0041571432 0.87300003 1.1417176e-38
-0.069008574 -0.0041571432 0.87300003 1.132822e-38
-0.067345716 -0.0041571432 0.87300003 1.132677e-38
-0.065682858 -0.0041571432 0.87300003 1.1420741e-38
-0.063873336 -0.0041476195 0.87100005 1.1511147e-38
-0.062357146 -0.0041571432 0.87300003 1.1513305e-38
-0.060694288 -0.0041571432 0.87300003 1.1419693e-38
-0.059031431 -0.0041571432 0.87300003 1.1238191e-38
-0.057237148 -0.0041476195 0.87100005 1.1143837e-38
-0.05545048 -0.0041380953 0.86900002 1.1055223e-38
-0.053795241 -0.0041380953 0.86900002 1.0964474e-38
-0.052140005 -0.0041380953 0.86900002 1.09652e-38
-0.050484765 -0.0041380953 0.86900002 1.1055955e-38
-0.048829526 -0.0041380953 0.86900002 1.0871919e-38
-0.04717429 -0.0041380953 0.86900002 1.0689682e-38
-0.045414288 -0.0041285716 0.86700004 1.0782232e-38
-0.044065718 -0.0041571432 0.87300003 1.0876947e-38
-0.04240286 -0.0041571432 0.87300003 1.096664e-38
-0.040646669 -0.0041476195 0.87100005 1.1059542e-38
-0.038987622 -0.0041476195 0.87100005 1.1243203e-38
-0.037328575 -0.0041476195 0.87100005 1.1521575e-38
-0.035751432 -0.0041571432 0.87300003 1.1611612e-38
-0.034010477 -0.0041476195 0.87100005 1.1705612e-38
-0.032351431 -0.0041476195 0.87100005 1.1059188e-38
-0.030692384 -0.0041476195 0.87100005 1.0323781e-38
-0.028966669 -0.0041380953 0.86900002 1.0414533e-38
-0.027311431 -0.0041380953 0.86900002 1.0505642e-38
-0.025656192 -0.0041380953 0.86900002 1.0599981e-38
-0.024000954 -0.0041380953 0.86900002 1.0695411e-38
-0.022345716 -0.0041380953 0.86900002 1.0876576e-38
-0.020690478 -0.0041380953 0.86900002 1.1062057e-38
-0.019035239 -0.0041380953 0.86900002 1.1336505e-38
-0.017340001 -0.0041285716 0.86700004 1.1705625e-38
-0.015688572 -0.0041285716 0.86700004 1.1611261e-38
-0.014037143 -0.0041285716 0.86700004 1.1522315e-38
-0.012385715 -0.0041285716 0.86700004 1.1888242e-38
-0.010709524 -0.0041190479 0.86500007 1.2258804e-38
-0.0090619056 -0.0041190479 0.86500007 1.1980778e-38
-0.007414286 -0.0041190479 0.86500007 1.1707077e-38
-0.005766667 -0.0041190479 0.86500007 1.1797487e-38
-0.0041285716 -0.0041285716 0.86700004 1.1891822e-38
-0.002477143 -0.0041285716 0.86700004 1.1705629e-38
-0.00082571432 -0.0041285716 0.86700004 1.1615237e-38
0.00082571432 -0.0041285716 0.86700004 1.1889315e-38
0.002477143 -0.0041285716 0.86700004 1.2256648e-38
0.0041285716 -0.0041285716 0.86700004 1.2071532e-38
0.0057800002 -0.0041285716 0.86700004 1.1980068e-38
0.0074314289 -0.0041285716 0.86700004 1.2072273e-38
0.0090619056 -0.0041190479 0.86500007 1.2167329e-38
0.010709524 -0.0041190479 0.86500007 1.2163732e-38
0.012357144 -0.0041190479 0.86500007 1.216337e-38
0.013956191 -0.0041047623 0.86200005 1.1978979e-38
0.015598096 -0.0041047623 0.86200005 1.17953e-38
0.017240001 -0.0041047623 0.86200005 1.1610901e-38
0.018881906 -0.0041047623 0.86200005 1.1519436e-38
0.020523811 -0.0041047623 0.86200005 1.1518728e-38
0.022165716 -0.0041047623 0.86200005 1.1520156e-38
0.023752382 -0.0040952382 0.86000001 1.1241412e-38
0.025390478 -0.0040952382 0.86000001 1.1057746e-38
0.026965717 -0.0040857145 0.85800004 1.1150662e-38
0.028533336 -0.0040761908 0.85600007 1.1243918e-38
0.030163812 -0.0040761908 0.85600007 1.1334303e-38
0.031868573 -0.0040857145 0.85800004 1.1518336e-38
0.033502858 -0.0040857145 0.85800004 1.1241397e-38
0.035219051 -0.0040952382 0.86000001 1.0963741e-38
0.036857147 -0.0040952382 0.86000001 1.0965179e-38
0.038495239 -0.0040952382 0.86000001 1.0963388e-38
0.040133335 -0.0040952382 0.86000001 1.1056302e-38
0.041771431 -0.0040952382 0.86000001 1.1145627e-38
0.043409526 -0.0040952382 0.86000001 1.1147062e-38
0.045047622 -0.0040952382 0.86000001 1.1052342e-38
0.046360005 -0.0040666671 0.85400003 1.1054839e-38
0.04787429 -0.0040571433 0.85200006 1.1144895e-38
0.049497146 -0.0040571433 0.85200006 1.0778642e-38
0.051120002 -0.0040571433 0.85200006 1.0500624e-38
0.052866671 -0.0040666671 0.85400003 1.0410581e-38
0.054493338 -0.0040666671 0.85400003 1.0316941e-38
0.056120005 -0.0040666671 0.85400003 1.0502753e-38
0.057746671 -0.0040666671 0.85400003 1.0684266e-38
0.059651431 -0.0040857145 0.85800004 1.0410548e-38
0.061285719 -0.0040857145 0.85800004 1.0223656e-38
0.062773339 -0.0040761908 0.85600007 1.0133623e-38
0.064403817 -0.0040761908 0.85600007 1.004034e-38
0.066188574 -0.0040857145 0.85800004 1.0133598e-38
0.067822859 -0.0040857145 0.85800004 1.0314763e-38
0.069457151 -0.0040857145 0.85800004 1.013289e-38
0.070760004 -0.0040666671 0.85400003 9.9456444e-39
0.072556198 -0.0040761908 0.85600007 9.8552564e-39
0.074360006 -0.0040857145 0.85800004 9.8530942e-39
0.075817145 -0.0040761908 0.85600007 9.856313e-39
0.077447623 -0.0040761908 0.85600007 9.7608888e-39
0.078893341 -0.0040666671 0.85400003 9.7637558e-39
0.080520004 -0.0040666671 0.85400003 9.7605188e-39
0.082146674 -0.0040666671 0.85400003 9.6719035e-39
0.083773337 -0.0040666671 0.85400003 9.5786345e-39
0.085200004 -0.0040571433 0.85200006 9.5793534e-39
0.087026671 -0.0040666671 0.85400003 9.6668967e-39
0.088653341 -0.0040666671 0.85400003 9.6701379e-39
0.090280004 -0.0040666671 0.85400003 9.6686974e-39
0.091906674 -0.0040666671 0.85400003 9.4864557e-39
0.093533337 -0.0040666671 0.85400003 9.298117e-39
0.095160007 -0.0040666671 0.85400003 8.9300519e-39
0.09678667 -0.0040666671 0.85400003 8.5576737e-39
0.098413341 -0.0040666671 0.85400003 8.6552349e-39
0.10004 -0.0040666671 0.85400003 8.8392884e-39
0.10166667 -0.0040666671 0.85400003 8.8428996e-39
0.10329334 -0.0040666671 0.85400003 8.9361658e-39
0.10492001 -0.0040666671 0.85400003 8.9365189e-39
0.10654667 -0.0040666671 0.85400003 8.9361434e-39
0.10817334 -0.0040666671 0.85400003 7.6432536e-39
0.10954286 -0.0040571433 0.85200006 6.4379253e-39
0.11142667 -0.0040666671 0.85400003 1.0123553e-38
0.11278858 -0.0040571433 0.85200006 1.3823225e-38
0.11441144 -0.0040571433 0.85200006 1.7322005e-38
0.11576191 -0.0040476192 0.85000002 2.0907177e-38
0.11738096 -0.0040476192 0.85000002 2.0722788e-38
0.11900001 -0.0040476192 0.85000002 2.0537318e-38
0.12061906 -0.0040476192 0.85000002 2.0630582e-38
-0.08896286 -0.0024942858 0.87300003 9.7587168e-39
-0.087500006 -0.0025000002 0.87500006 1.0041057e-38
-0.086127624 -0.0025085716 0.87800002 1.1425424e-38
-0.084647626 -0.002514286 0.88000005 1.2711848e-38
