# .PCD v0.7 - Point Cloud Data file format
VERSION 0.7
FIELDS x y z rgb
SIZE 4 4 4 4
TYPE F F F F
COUNT 1 1 1 1
WIDTH 970
HEIGHT 1
VIEWPOINT 0 0 0 1 0 0 0
POINTS 970
DATA ascii
0.03634667 0.025520002 0.81200004 1.7326715e-38
0.03798667 0.025582859 0.81400001 1.7602586e-38
0.039537147 0.025582859 0.81400001 1.7879167e-38
-0.016120002 0.026866669 0.80600005 1.391436e-38
-0.014657144 0.027000003 0.81000006 1.3730333e-38
-0.013114287 0.027000003 0.81000006 1.363814e-38
-0.011600001 0.027066668 0.81200004 1.3546306e-38
-0.010053334 0.027066668 0.81200004 1.3546662e-38
-0.0085066669 0.027066668 0.81200004 1.3546659e-38
-0.0069600004 0.027066668 0.81200004 1.3638135e-38
-0.0054133339 0.027066668 0.81200004 1.3638132e-38
-0.0038666669 0.027066668 0.81200004 1.3637767e-38
-0.0023142858 0.027000003 0.81000006 1.3638478e-38
-0.00077142863 0.027000003 0.81000006 1.3730319e-38
0.00077142863 0.027000003 0.81000006 1.3730325e-38
0.0023142858 0.027000003 0.81000006 1.373069e-38
0.0038571432 0.027000003 0.81000006 1.3730696e-38
0.0054000001 0.027000003 0.81000006 1.3730333e-38
0.0069428575 0.027000003 0.81000006 1.3638135e-38
0.0085066669 0.027066668 0.81200004 1.35463e-38
0.010053334 0.027066668 0.81200004 1.3638136e-38
0.01157143 0.027000003 0.81000006 1.3821454e-38
0.013114287 0.027000003 0.81000006 1.3637787e-38
0.014657144 0.027000003 0.81000006 1.354559e-38
0.0162 0.027000003 0.81000006 1.3637781e-38
0.017742859 0.027000003 0.81000006 1.363778e-38
0.019285716 0.027000003 0.81000006 1.3545942e-38
0.020828573 0.027000003 0.81000006 1.3361905e-38
0.022426669 0.027066668 0.81200004 1.3362255e-38
0.023973335 0.027066668 0.81200004 1.3270065e-38
0.025520002 0.027066668 0.81200004 1.3270428e-38
0.027066668 0.027066668 0.81200004 1.3270784e-38
0.028613335 0.027066668 0.81200004 1.2716897e-38
0.030160002 0.027066668 0.81200004 1.2255602e-38
0.031706668 0.027066668 0.81200004 1.4747034e-38
0.033253334 0.027066668 0.81200004 1.7326335e-38
0.0348 0.027066668 0.81200004 1.7326709e-38
0.03634667 0.027066668 0.81200004 1.7326719e-38
0.037893336 0.027066668 0.81200004 1.7602953e-38
0.039342858 0.027000003 0.81000006 1.7879889e-38
-0.016160002 0.028472383 0.80800003 1.3822524e-38
-0.014657144 0.028542859 0.81000006 1.3729973e-38
-0.013114287 0.028542859 0.81000006 1.3546298e-38
-0.01157143 0.028542859 0.81000006 1.3545935e-38
-0.010028572 0.028542859 0.81000006 1.3454461e-38
-0.0084857149 0.028542859 0.81000006 1.3638135e-38
-0.0069428575 0.028542859 0.81000006 1.3729969e-38
-0.0054133339 0.028613335 0.81200004 1.372961e-38
-0.0038571432 0.028542859 0.81000006 1.3638127e-38
-0.0023142858 0.028542859 0.81000006 1.37296e-38
-0.00077142863 0.028542859 0.81000006 1.3822157e-38
0.00077142863 0.028542859 0.81000006 1.382252e-38
0.0023142858 0.028542859 0.81000006 1.3730689e-38
0.0038571432 0.028542859 0.81000006 1.3731052e-38
0.0054000001 0.028542859 0.81000006 1.373069e-38
0.0069428575 0.028542859 0.81000006 1.3730329e-38
0.0084857149 0.028542859 0.81000006 1.3730329e-38
0.010028572 0.028542859 0.81000006 1.3821807e-38
0.01157143 0.028542859 0.81000006 1.3913286e-38
0.013114287 0.028542859 0.81000006 1.372926e-38
0.014657144 0.028542859 0.81000006 1.3454109e-38
0.0162 0.028542859 0.81000006 1.3637779e-38
0.017742859 0.028542859 0.81000006 1.3729613e-38
0.019285716 0.028542859 0.81000006 1.3637777e-38
0.020828573 0.028542859 0.81000006 1.354594e-38
0.02237143 0.028542859 0.81000006 1.3454103e-38
0.023914287 0.028542859 0.81000006 1.3270431e-38
0.025520002 0.028613335 0.81200004 1.327043e-38
0.027066668 0.028613335 0.81200004 1.3177872e-38
0.028613335 0.028613335 0.81200004 1.2716537e-38
0.030160002 0.028613335 0.81200004 1.2168073e-38
0.031706668 0.028613335 0.81200004 1.4750268e-38
0.033253334 0.028613335 0.81200004 1.7325263e-38
0.0348 0.028613335 0.81200004 1.7326712e-38
0.036257144 0.028542859 0.81000006 1.7326716e-38
0.037800003 0.028542859 0.81000006 1.7602945e-38
0.039342858 0.028542859 0.81000006 1.7879167e-38
-0.016120002 0.029937144 0.80600005 1.3730689e-38
-0.014620953 0.03001143 0.80800003 1.3638495e-38
-0.013081905 0.03001143 0.80800003 1.3545932e-38
-0.01157143 0.030085716 0.81000006 1.3454087e-38
-0.010028572 0.030085716 0.81000006 1.3362618e-38
-0.0084857149 0.030085716 0.81000006 1.3546296e-38
-0.0069428575 0.030085716 0.81000006 1.3729969e-38
-0.0054000001 0.030085716 0.81000006 1.372997e-38
-0.0038571432 0.030085716 0.81000006 1.3730683e-38
-0.0023085715 0.03001143 0.80800003 1.3638485e-38
-0.00076952385 0.03001143 0.80800003 1.3638848e-38
0.00076952385 0.03001143 0.80800003 1.3638851e-38
0.0023085715 0.03001143 0.80800003 1.372997e-38
0.0038476193 0.03001143 0.80800003 1.3730689e-38
0.0053866669 0.03001143 0.80800003 1.3730689e-38
0.0069257147 0.03001143 0.80800003 1.3730687e-38
0.008464762 0.03001143 0.80800003 1.3730329e-38
0.01000381 0.03001143 0.80800003 1.3822164e-38
0.011542858 0.03001143 0.80800003 1.3913642e-38
0.013081905 0.03001143 0.80800003 1.3729971e-38
0.014620953 0.03001143 0.80800003 1.3638135e-38
0.016160002 0.03001143 0.80800003 1.3638133e-38
0.017699048 0.03001143 0.80800003 1.3729611e-38
0.019238096 0.03001143 0.80800003 1.3638136e-38
0.020777144 0.03001143 0.80800003 1.3546306e-38
0.02237143 0.030085716 0.81000006 1.3454475e-38
0.023914287 0.030085716 0.81000006 1.3362273e-38
0.025457144 0.030085716 0.81000006 1.3270431e-38
0.027000003 0.030085716 0.81000006 1.3270425e-38
0.028542859 0.030085716 0.81000006 1.280873e-38
0.030085716 0.030085716 0.81000006 1.2347083e-38
0.031628575 0.030085716 0.81000006 1.4838879e-38
0.03317143 0.030085716 0.81000006 1.7418179e-38
0.034714289 0.030085716 0.81000006 1.741855e-38
0.036167622 0.03001143 0.80800003 1.741819e-38
0.037706669 0.03001143 0.80800003 1.7602577e-38
0.039245717 0.03001143 0.80800003 1.7878804e-38
0.040784765 0.03001143 0.80800003 1.815503e-38
-0.01909524 0.031316191 0.80200005 1.3912195e-38
-0.017611429 0.031394288 0.80400002 1.3821803e-38
-0.016120002 0.031472381 0.80600005 1.3638853e-38
-0.014584763 0.031472381 0.80600005 1.36385e-38
-0.013049524 0.031472381 0.80600005 1.3546654e-38
-0.011542858 0.031550478 0.80800003 1.3454089e-38
-0.01000381 0.031550478 0.80800003 1.3271141e-38
-0.008464762 0.031550478 0.80800003 1.3454458e-38
-0.0069257147 0.031550478 0.80800003 1.3638133e-38
-0.0054000001 0.031628575 0.81000006 1.3729613e-38
-0.0038476193 0.031550478 0.80800003 1.3822161e-38
-0.0023085715 0.031550478 0.80800003 1.3638846e-38
-0.00076952385 0.031550478 0.80800003 1.3363341e-38
0.00076952385 0.031550478 0.80800003 1.3547014e-38
0.0023085715 0.031550478 0.80800003 1.3638846e-38
0.0038476193 0.031550478 0.80800003 1.3730322e-38
0.0053866669 0.031550478 0.80800003 1.3730683e-38
0.0069257147 0.031550478 0.80800003 1.3730687e-38
0.008464762 0.031550478 0.80800003 1.3638851e-38
0.01000381 0.031550478 0.80800003 1.3731045e-38
0.011514287 0.031472381 0.80600005 1.3822163e-38
0.013049524 0.031472381 0.80600005 1.3822164e-38
0.014584763 0.031472381 0.80600005 1.3730326e-38
0.016120002 0.031472381 0.80600005 1.373068e-38
0.017655239 0.031472381 0.80600005 1.3729967e-38
0.019190477 0.031472381 0.80600005 1.3638493e-38
0.020777144 0.031550478 0.80800003 1.3546302e-38
0.022316191 0.031550478 0.80800003 1.3454469e-38
0.023855239 0.031550478 0.80800003 1.3362269e-38
0.025457144 0.031628575 0.81000006 1.3362264e-38
0.027000003 0.031628575 0.81000006 1.3269707e-38
0.028542859 0.031628575 0.81000006 1.2900925e-38
0.030085716 0.031628575 0.81000006 1.244394e-38
0.031628575 0.031628575 0.81000006 1.4932147e-38
0.033089526 0.031550478 0.80800003 1.7416383e-38
0.034628574 0.031550478 0.80800003 1.7418549e-38
0.036078099 0.031472381 0.80600005 1.7418189e-38
0.037613336 0.031472381 0.80600005 1.7694412e-38
0.039051432 0.031394288 0.80400002 1.7878803e-38
0.040582858 0.031394288 0.80400002 1.8154672e-38
-0.01909524 0.032843813 0.80200005 1.4558272e-38
-0.017611429 0.032925718 0.80400002 1.4374965e-38
-0.016080001 0.032925718 0.80400002 1.4190585e-38
-0.014584763 0.033007622 0.80600005 1.4282788e-38
-0.013049524 0.033007622 0.80600005 1.4282059e-38
-0.011514287 0.033007622 0.80600005 1.419057e-38
-0.0099790478 0.033007622 0.80600005 1.4006902e-38
-0.00844381 0.033007622 0.80600005 1.4190574e-38
-0.0069085718 0.033007622 0.80600005 1.4465369e-38
-0.0053866669 0.033089526 0.80800003 1.4650839e-38
-0.0038476193 0.033089526 0.80800003 1.4832355e-38
-0.0023028573 0.033007622 0.80600005 1.4282055e-38
-0.00076761912 0.033007622 0.80600005 1.3729966e-38
0.00076761912 0.033007622 0.80600005 1.3731042e-38
0.0023028573 0.033007622 0.80600005 1.3822872e-38
0.0038380956 0.033007622 0.80600005 1.3731388e-38
0.0053733336 0.033007622 0.80600005 1.3731038e-38
0.0069085718 0.033007622 0.80600005 1.3731046e-38
0.00844381 0.033007622 0.80600005 1.3730327e-38
0.0099790478 0.033007622 0.80600005 1.3822519e-38
0.011514287 0.033007622 0.80600005 1.3913997e-38
0.013049524 0.033007622 0.80600005 1.3822163e-38
0.014584763 0.033007622 0.80600005 1.3729963e-38
0.016120002 0.033007622 0.80600005 1.3730316e-38
0.017655239 0.033007622 0.80600005 1.382144e-38
0.019190477 0.033007622 0.80600005 1.3637774e-38
0.020725716 0.033007622 0.80600005 1.354558e-38
0.022260955 0.033007622 0.80600005 1.3545939e-38
0.023796191 0.033007622 0.80600005 1.3545936e-38
0.025394287 0.033089526 0.80800003 1.3361902e-38
0.026933335 0.033089526 0.80800003 1.3177871e-38
0.028472383 0.033089526 0.80800003 1.2901286e-38
0.03001143 0.033089526 0.80800003 1.2717292e-38
0.031550478 0.033089526 0.80800003 1.5022902e-38
0.033089526 0.033089526 0.80800003 1.741638e-38
0.034628574 0.033089526 0.80800003 1.741783e-38
0.036078099 0.033007622 0.80600005 1.7509306e-38
0.037613336 0.033007622 0.80600005 1.7786604e-38
0.039148573 0.033007622 0.80600005 1.8062832e-38
0.040683813 0.033007622 0.80600005 1.8247225e-38
-0.016120002 0.034542859 0.80600005 1.4743752e-38
-0.014584763 0.034542859 0.80600005 1.4928502e-38
-0.013049524 0.034542859 0.80600005 1.5018181e-38
-0.011542858 0.034628574 0.80800003 1.4927775e-38
-0.0099790478 0.034542859 0.80600005 1.4742672e-38
-0.00844381 0.034542859 0.80600005 1.5019256e-38
-0.0069085718 0.034542859 0.80600005 1.5204011e-38
-0.0053733336 0.034542859 0.80600005 1.5484548e-38
-0.0038380956 0.034542859 0.80600005 1.5755384e-38
-0.0023028573 0.034542859 0.80600005 1.4926347e-38
-0.00076761912 0.034542859 0.80600005 1.4099826e-38
0.00076761912 0.034542859 0.80600005 1.4008349e-38
0.0023028573 0.034542859 0.80600005 1.3916511e-38
0.0038380956 0.034542859 0.80600005 1.3824314e-38
0.0053733336 0.034542859 0.80600005 1.3640651e-38
0.0069085718 0.034542859 0.80600005 1.3731778e-38
0.00844381 0.034542859 0.80600005 1.3731411e-38
0.0099790478 0.034542859 0.80600005 1.3822161e-38
0.011514287 0.034542859 0.80600005 1.3914716e-38
0.013049524 0.034542859 0.80600005 1.3822164e-38
0.014584763 0.034542859 0.80600005 1.3731048e-38
0.016120002 0.034542859 0.80600005 1.3822167e-38
0.017655239 0.034542859 0.80600005 1.3822163e-38
0.019190477 0.034542859 0.80600005 1.3729248e-38
0.020725716 0.034542859 0.80600005 1.3545935e-38
0.022260955 0.034542859 0.80600005 1.363741e-38
0.023796191 0.034542859 0.80600005 1.3637769e-38
0.02533143 0.034542859 0.80600005 1.3361904e-38
0.026933335 0.034628574 0.80800003 1.29942e-38
0.028472383 0.034628574 0.80800003 1.2992405e-38
0.03001143 0.034628574 0.80800003 1.2904552e-38
0.031550478 0.034628574 0.80800003 1.5209804e-38
0.033089526 0.034628574 0.80800003 1.741674e-38
0.034628574 0.034628574 0.80800003 1.7510024e-38
0.036078099 0.034542859 0.80600005 1.7510741e-38
0.037613336 0.034542859 0.80600005 1.7879875e-38
0.039148573 0.034542859 0.80600005 1.8155385e-38
0.040683813 0.034542859 0.80600005 1.8339419e-38
-0.016120002 0.036078099 0.80600005 1.0702992e-38
-0.014584763 0.036078099 0.80600005 1.0510708e-38
-0.013049524 0.036078099 0.80600005 1.033278e-38
-0.011514287 0.036078099 0.80600005 9.9582645e-39
-0.0099790478 0.036078099 0.80600005 9.5977412e-39
-0.00844381 0.036078099 0.80600005 1.0144092e-38
-0.0069085718 0.036078099 0.80600005 1.079592e-38
-0.0053733336 0.036078099 0.80600005 1.1342279e-38
-0.0038285716 0.035988573 0.80400002 1.1992293e-38
-0.002297143 0.035988573 0.80400002 1.2169855e-38
-0.00076571433 0.035988573 0.80400002 1.244823e-38
0.00076571433 0.035988573 0.80400002 1.2722658e-38
0.0023028573 0.036078099 0.80600005 1.2908483e-38
0.0038380956 0.036078099 0.80600005 1.3550614e-38
0.0053733336 0.036078099 0.80600005 1.4101635e-38
0.0069085718 0.036078099 0.80600005 1.4101285e-38
0.00844381 0.036078099 0.80600005 1.4192747e-38
0.0099790478 0.036078099 0.80600005 1.446788e-38
0.011514287 0.036078099 0.80600005 1.4743029e-38
0.013049524 0.036078099 0.80600005 1.4467883e-38
0.014584763 0.036078099 0.80600005 1.4283863e-38
0.016120002 0.036078099 0.80600005 1.4283512e-38
0.017611429 0.035988573 0.80400002 1.4374976e-38
0.019142859 0.035988573 0.80400002 1.4282409e-38
0.020725716 0.036078099 0.80600005 1.4097661e-38
0.022260955 0.036078099 0.80600005 1.4189852e-38
0.023796191 0.036078099 0.80600005 1.4281332e-38
0.02533143 0.036078099 0.80600005 1.3913993e-38
0.026866669 0.036078099 0.80600005 1.3545932e-38
0.028401908 0.036078099 0.80600005 1.3453378e-38
0.029937144 0.036078099 0.80600005 1.336158e-38
0.031472381 0.036078099 0.80600005 1.5391324e-38
0.033089526 0.036167622 0.80800003 1.7417818e-38
0.034542859 0.036078099 0.80600005 1.7510742e-38
0.036078099 0.036078099 0.80600005 1.7603293e-38
0.037613336 0.036078099 0.80600005 1.7879516e-38
0.039148573 0.036078099 0.80600005 1.8155385e-38
0.040683813 0.036078099 0.80600005 1.8339777e-38
-0.016120002 0.037613336 0.80600005 6.5455562e-39
-0.014584763 0.037613336 0.80600005 6.0781167e-39
-0.013049524 0.037613336 0.80600005 5.5303407e-39
-0.011514287 0.037613336 0.80600005 4.9739565e-39
-0.0099790478 0.037613336 0.80600005 4.3372177e-39
-0.00844381 0.037613336 0.80600005 5.3470621e-39
-0.006891429 0.037520003 0.80400002 6.2693743e-39
-0.0053600003 0.037520003 0.80400002 7.1877405e-39
-0.0038285716 0.037520003 0.80400002 8.1111149e-39
-0.002297143 0.037520003 0.80400002 9.496538e-39
-0.00076571433 0.037520003 0.80400002 1.0781882e-38
0.00076571433 0.037520003 0.80400002 1.1341511e-38
0.002297143 0.037520003 0.80400002 1.1889659e-38
0.0038285716 0.037520003 0.80400002 1.3276522e-38
0.0053733336 0.037613336 0.80600005 1.4557208e-38
0.0069085718 0.037613336 0.80600005 1.4562601e-38
0.00844381 0.037613336 0.80600005 1.4557574e-38
0.0099790478 0.037613336 0.80600005 1.5113605e-38
0.011514287 0.037613336 0.80600005 1.557063e-38
0.013049524 0.037613336 0.80600005 1.5206515e-38
0.014584763 0.037613336 0.80600005 1.4742323e-38
0.016120002 0.037613336 0.80600005 1.4837034e-38
0.017655239 0.037613336 0.80600005 1.4925991e-38
0.019142859 0.037520003 0.80400002 1.483558e-38
0.020725716 0.037613336 0.80600005 1.4649754e-38
0.022205716 0.037520003 0.80400002 1.483414e-38
0.023796191 0.037613336 0.80600005 1.4925978e-38
0.02533143 0.037613336 0.80600005 1.4466087e-38
0.026866669 0.037613336 0.80600005 1.4005831e-38
0.028401908 0.037613336 0.80600005 1.3913993e-38
0.029937144 0.037613336 0.80600005 1.3732869e-38
0.031472381 0.037613336 0.80600005 1.5576074e-38
0.033007622 0.037613336 0.80600005 1.7416384e-38
0.034542859 0.037613336 0.80600005 1.7602938e-38
0.036078099 0.037613336 0.80600005 1.769513e-38
0.037613336 0.037613336 0.80600005 1.787916e-38
0.039051432 0.037520003 0.80400002 1.806391e-38
0.040582858 0.037520003 0.80400002 1.8340497e-38
-0.016160002 0.039245717 0.80800003 7.8117961e-39
-0.014584763 0.039148573 0.80600005 7.7278317e-39
-0.013049524 0.039148573 0.80600005 7.5316219e-39
-0.011514287 0.039148573 0.80600005 7.0835806e-39
-0.0099790478 0.039148573 0.80600005 6.521828e-39
-0.00844381 0.039148573 0.80600005 6.9932248e-39
-0.0069085718 0.039148573 0.80600005 7.4402166e-39
-0.0053733336 0.039148573 0.80600005 7.9123197e-39
-0.0038285716 0.039051432 0.80400002 8.3600233e-39
-0.002297143 0.039051432 0.80400002 8.9282611e-39
-0.00076571433 0.039051432 0.80400002 9.4742672e-39
0.00076571433 0.039051432 0.80400002 9.6701491e-39
0.002297143 0.039051432 0.80400002 9.9406417e-39
0.0038285716 0.039051432 0.80400002 1.0686455e-38
0.0053600003 0.039051432 0.80400002 1.13286e-38
0.0069085718 0.039148573 0.80600005 1.1516948e-38
0.00844381 0.039148573 0.80600005 1.1698474e-38
0.0099790478 0.039148573 0.80600005 1.2255591e-38
0.011514287 0.039148573 0.80600005 1.2810547e-38
0.013049524 0.039148573 0.80600005 1.2440333e-38
0.014584763 0.039148573 0.80600005 1.2161602e-38
0.016120002 0.039148573 0.80600005 1.2162681e-38
0.017655239 0.039148573 0.80600005 1.2258099e-38
0.019190477 0.039148573 0.80600005 1.234957e-38
0.020725716 0.039148573 0.80600005 1.2536107e-38
0.022260955 0.039148573 0.80600005 1.2811251e-38
0.023796191 0.039148573 0.80600005 1.3092142e-38
0.02533143 0.039148573 0.80600005 1.2810542e-38
0.026866669 0.039148573 0.80600005 1.253539e-38
0.028401908 0.039148573 0.80600005 1.3178593e-38
0.029937144 0.039148573 0.80600005 1.3825066e-38
0.031472381 0.039148573 0.80600005 1.5575718e-38
0.033007622 0.039148573 0.80600005 1.7416027e-38
0.034542859 0.039148573 0.80600005 1.7510385e-38
0.036078099 0.039148573 0.80600005 1.7695132e-38
0.037613336 0.039148573 0.80600005 1.787952e-38
0.039051432 0.039051432 0.80400002 1.8155748e-38
0.040582858 0.039051432 0.80400002 1.8340141e-38
-0.016160002 0.040784765 0.80800003 9.1172752e-39
-0.014620953 0.040784765 0.80800003 9.3981487e-39
-0.013081905 0.040784765 0.80800003 9.5742947e-39
-0.011542858 0.040784765 0.80800003 9.2144945e-39
-0.01000381 0.040784765 0.80800003 8.748148e-39
-0.008464762 0.040784765 0.80800003 8.755687e-39
-0.0069085718 0.040683813 0.80600005 8.6552503e-39
-0.0053733336 0.040683813 0.80600005 8.6613571e-39
-0.0038285716 0.040582858 0.80400002 8.6538294e-39
-0.0023028573 0.040683813 0.80600005 8.3819172e-39
-0.00076571433 0.040582858 0.80400002 8.1053443e-39
0.00076571433 0.040582858 0.80400002 8.1075065e-39
0.0023028573 0.040683813 0.80600005 8.0156752e-39
0.0038380956 0.040683813 0.80600005 8.1078751e-39
0.0053733336 0.040683813 0.80600005 8.1111079e-39
0.0069257147 0.040784765 0.80800003 8.4780967e-39
0.00844381 0.040683813 0.80600005 8.8486673e-39
0.0099790478 0.040683813 0.80600005 9.4918745e-39
0.011514287 0.040683813 0.80600005 1.0045394e-38
0.013049524 0.040683813 0.80600005 9.7666565e-39
0.014584763 0.040683813 0.80600005 9.4897207e-39
0.016120002 0.040683813 0.80600005 9.5768983e-39
0.017655239 0.040683813 0.80600005 9.5826366e-39
0.019190477 0.040683813 0.80600005 9.952131e-39
0.020725716 0.040683813 0.80600005 1.0321981e-38
0.022260955 0.040683813 0.80600005 1.0782591e-38
0.023796191 0.040683813 0.80600005 1.1151005e-38
0.02533143 0.040683813 0.80600005 1.1055937e-38
0.026866669 0.040683813 0.80600005 1.0966998e-38
0.028401908 0.040683813 0.80600005 1.2440338e-38
0.029937144 0.040683813 0.80600005 1.3825079e-38
0.031472381 0.040683813 0.80600005 1.557752e-38
0.033007622 0.040683813 0.80600005 1.732527e-38
0.034542859 0.040683813 0.80600005 1.7510741e-38
0.036078099 0.040683813 0.80600005 1.7603655e-38
0.037613336 0.040683813 0.80600005 1.7971716e-38
0.039051432 0.040582858 0.80400002 1.8247585e-38
-0.016160002 0.042323813 0.80800003 8.9419069e-39
-0.014620953 0.042323813 0.80800003 9.0305068e-39
-0.013114287 0.042428575 0.81000006 9.1219836e-39
-0.011542858 0.042323813 0.80800003 8.8461183e-39
-0.01000381 0.042323813 0.80800003 8.5713195e-39
-0.008464762 0.042323813 0.80800003 8.5702321e-39
-0.0069257147 0.042323813 0.80800003 8.5702377e-39
-0.0053733336 0.04221905 0.80600005 8.4773302e-39
-0.0038380956 0.04221905 0.80600005 8.4776974e-39
-0.0023028573 0.04221905 0.80600005 8.3844339e-39
-0.00076761912 0.04221905 0.80600005 8.3858731e-39
0.00076761912 0.04221905 0.80600005 8.2007714e-39
0.0023028573 0.04221905 0.80600005 8.1100135e-39
0.0038380956 0.04221905 0.80600005 8.2011329e-39
0.0053866669 0.042323813 0.80800003 8.2947578e-39
0.0069257147 0.042323813 0.80800003 8.4784246e-39
0.008464762 0.042323813 0.80800003 8.7571541e-39
0.01000381 0.042323813 0.80800003 8.7539199e-39
0.011542858 0.042323813 0.80800003 8.8475449e-39
0.013049524 0.04221905 0.80600005 8.5684455e-39
0.014584763 0.04221905 0.80600005 8.3815543e-39
0.016120002 0.04221905 0.80600005 8.3815627e-39
0.017655239 0.04221905 0.80600005 8.4712486e-39
0.019190477 0.04221905 0.80600005 8.5670329e-39
0.020777144 0.042323813 0.80800003 8.7517801e-39
0.022260955 0.04221905 0.80600005 8.9372434e-39
0.023796191 0.04221905 0.80600005 9.1216192e-39
0.02533143 0.04221905 0.80600005 8.6613529e-39
0.026866669 0.04221905 0.80600005 8.2040266e-39
0.028401908 0.04221905 0.80600005 1.0780141e-38
0.029937144 0.04221905 0.80600005 1.3365197e-38
0.031472381 0.04221905 0.80600005 1.539314e-38
0.033089526 0.042323813 0.80800003 1.7418543e-38
0.034628574 0.042323813 0.80800003 1.7511096e-38
0.036167622 0.042323813 0.80800003 1.7603654e-38
0.037706669 0.042323813 0.80800003 1.7971717e-38
-0.014620953 0.043862861 0.80800003 8.6592062e-39
-0.013146668 0.044080004 0.81200004 8.6599264e-39
-0.011600001 0.044080004 0.81200004 8.5680937e-39
-0.010028572 0.043971431 0.81000006 8.3844143e-39
-0.0085066669 0.044080004 0.81200004 8.3836885e-39
-0.0069600004 0.044080004 0.81200004 8.3840528e-39
-0.0053866669 0.043862861 0.80800003 8.3833409e-39
-0.0038380956 0.043754287 0.80600005 8.2918684e-39
-0.0023085715 0.043862861 0.80800003 8.4751862e-39
-0.00076761912 0.043754287 0.80600005 8.5681007e-39
0.00076761912 0.043754287 0.80600005 8.3833549e-39
0.0023085715 0.043862861 0.80800003 8.1089233e-39
0.0038571432 0.043971431 0.81000006 8.2911593e-39
0.0054000001 0.043971431 0.81000006 8.4766254e-39
0.0069428575 0.043971431 0.81000006 8.5673875e-39
0.0084857149 0.043971431 0.81000006 8.5681021e-39
0.010028572 0.043971431 0.81000006 8.1031821e-39
0.01157143 0.043971431 0.81000006 7.5546705e-39
0.013114287 0.043971431 0.81000006 7.4610315e-39
0.014657144 0.043971431 0.81000006 7.2791654e-39
0.016160002 0.043862861 0.80800003 7.2806101e-39
0.017742859 0.043971431 0.81000006 7.2777375e-39
0.019285716 0.043971431 0.81000006 7.1841055e-39
0.020828573 0.043971431 0.81000006 7.094428e-39
0.022316191 0.043862861 0.80800003 7.0926399e-39
0.023855239 0.043862861 0.80800003 7.0025897e-39
0.025394287 0.043862861 0.80800003 6.1713997e-39
0.026933335 0.043862861 0.80800003 5.3463656e-39
0.028472383 0.043862861 0.80800003 9.1109553e-39
0.03001143 0.043862861 0.80800003 1.2902426e-38
0.031550478 0.043862861 0.80800003 1.5211615e-38
0.033089526 0.043862861 0.80800003 1.7509657e-38
0.034628574 0.043862861 0.80800003 1.7602931e-38
0.036167622 0.043862861 0.80800003 1.7603652e-38
-0.014729525 0.045739051 0.81400001 8.5662818e-39
-0.013179049 0.045739051 0.81400001 8.56557e-39
-0.011642857 0.04579524 0.81500006 8.3819046e-39
-0.010078096 0.045739051 0.81400001 8.2897034e-39
-0.0085590482 0.04590762 0.81700003 8.1982196e-39
-0.0069857147 0.04579524 0.81500006 8.1982266e-39
-0.0054133339 0.04562667 0.81200004 8.2904264e-39
-0.0038666669 0.04562667 0.81200004 8.381906e-39
-0.0023200002 0.04562667 0.81200004 8.5673735e-39
-0.00077142863 0.045514289 0.81000006 8.8443149e-39
0.00076952385 0.045401908 0.80800003 8.7524794e-39
0.0023200002 0.04562667 0.81200004 8.753194e-39
0.0038666669 0.04562667 0.81200004 9.1201731e-39
0.0054133339 0.04562667 0.81200004 9.4875249e-39
0.0069428575 0.045514289 0.81000006 9.2123855e-39
0.0085066669 0.04562667 0.81200004 8.9358028e-39
0.010028572 0.045514289 0.81000006 8.4737541e-39
0.011600001 0.04562667 0.81200004 8.0106166e-39
0.013146668 0.04562667 0.81200004 7.6450542e-39
0.014657144 0.045514289 0.81000006 7.3702778e-39
0.0162 0.045514289 0.81000006 7.3706492e-39
0.017742859 0.045514289 0.81000006 7.4610413e-39
0.019285716 0.045514289 0.81000006 7.4606728e-39
0.020828573 0.045514289 0.81000006 7.4610441e-39
0.02237143 0.045514289 0.81000006 7.4610553e-39
0.023914287 0.045514289 0.81000006 7.5525293e-39
0.025457144 0.045514289 0.81000006 6.7224197e-39
0.027000003 0.045514289 0.81000006 5.9806073e-39
0.028542859 0.045514289 0.81000006 9.5798144e-39
0.030160002 0.04562667 0.81200004 1.3187613e-38
0.031550478 0.045401908 0.80800003 1.5395995e-38
0.03317143 0.045514289 0.81000006 1.7600771e-38
0.034714289 0.045514289 0.81000006 1.7603288e-38
0.036257144 0.045514289 0.81000006 1.7695846e-38
-0.01474762 0.047347624 0.81500006 8.4740932e-39
-0.013195239 0.047347624 0.81500006 8.3811843e-39
-0.011642857 0.047347624 0.81500006 8.2882768e-39
-0.010090477 0.047347624 0.81500006 8.1053191e-39
-0.0085590482 0.047463812 0.81700003 8.0134794e-39
-0.0069857147 0.047347624 0.81500006 7.9220069e-39
-0.0054266672 0.047289528 0.81400001 8.1975189e-39
-0.0038761906 0.047289528 0.81400001 8.474103e-39
-0.0023257143 0.047289528 0.81400001 8.752122e-39
-0.00077333336 0.047173336 0.81200004 9.0279873e-39
0.00077142863 0.047057144 0.81000006 9.2130946e-39
0.0023200002 0.047173336 0.81200004 9.3960537e-39
0.0038666669 0.047173336 0.81200004 9.9481485e-39
0.0054133339 0.047173336 0.81200004 1.0406609e-38
0.0069600004 0.047173336 0.81200004 9.8581067e-39
0.0085066669 0.047173336 0.81200004 9.3042196e-39
0.010053334 0.047173336 0.81200004 8.8446806e-39
0.011600001 0.047173336 0.81200004 8.3815487e-39
0.013146668 0.047173336 0.81200004 7.921288e-39
0.014693335 0.047173336 0.81200004 7.3702806e-39
0.0162 0.047057144 0.81000006 7.4621217e-39
0.017786669 0.047173336 0.81200004 7.5535943e-39
0.019333335 0.047173336 0.81200004 7.7365436e-39
0.020880001 0.047173336 0.81200004 7.8291036e-39
0.022426669 0.047173336 0.81200004 7.9213048e-39
0.023973335 0.047173336 0.81200004 8.0124186e-39
0.025520002 0.047173336 0.81200004 7.2766557e-39
0.027066668 0.047173336 0.81200004 6.5398641e-39
0.028613335 0.047173336 0.81200004 9.9475095e-39
0.030234288 0.047289528 0.81400001 1.336662e-38
0.031628575 0.047057144 0.81000006 1.5583261e-38
0.033253334 0.047173336 0.81200004 1.7694402e-38
0.0348 0.047173336 0.81200004 1.7696553e-38
0.03634667 0.047173336 0.81200004 1.76962e-38
-0.01474762 0.048900004 0.81500006 8.4740974e-39
-0.013195239 0.048900004 0.81500006 8.2889943e-39
-0.011671429 0.049020004 0.81700003 8.2893544e-39
-0.010115239 0.049020004 0.81700003 8.1975175e-39
-0.0085590482 0.049020004 0.81700003 8.1056792e-39
-0.0069857147 0.048900004 0.81500006 8.013848e-39
-0.0054266672 0.048840005 0.81400001 8.1056863e-39
-0.0038761906 0.048840005 0.81400001 8.2893572e-39
-0.0023257143 0.048840005 0.81400001 8.3822689e-39
-0.00077523815 0.048840005 0.81400001 8.5670189e-39
0.00077333336 0.048720002 0.81200004 8.6595733e-39
0.0023200002 0.048720002 0.81200004 8.7510641e-39
0.0038761906 0.048840005 0.81400001 8.9347491e-39
0.0054266672 0.048840005 0.81400001 9.2095297e-39
0.0069600004 0.048720002 0.81200004 8.9354483e-39
0.0085066669 0.048720002 0.81200004 8.7517717e-39
0.010053334 0.048720002 0.81200004 8.3833465e-39
0.011600001 0.048720002 0.81200004 8.106045e-39
0.013146668 0.048720002 0.81200004 7.9216551e-39
0.014693335 0.048720002 0.81200004 7.6454312e-39
0.016280001 0.048840005 0.81400001 7.6457885e-39
0.017830478 0.048840005 0.81400001 7.737624e-39
0.019380953 0.048840005 0.81400001 7.8294595e-39
0.02093143 0.048840005 0.81400001 7.9220153e-39
0.022481907 0.048840005 0.81400001 7.9216593e-39
0.024032382 0.048840005 0.81400001 8.0127732e-39
0.025582859 0.048840005 0.81400001 7.2755725e-39
0.027133334 0.048840005 0.81400001 6.6281067e-39
0.028683811 0.048840005 0.81400001 1.0042567e-38
0.030271431 0.048900004 0.81500006 1.3554239e-38
0.03182381 0.048900004 0.81500006 1.5579683e-38
0.033376191 0.048900004 0.81500006 1.7692968e-38
0.034885716 0.048840005 0.81400001 1.7694753e-38
0.036480956 0.048900004 0.81500006 1.7696195e-38
-0.014928573 0.051071431 0.82500005 8.4733828e-39
-0.013357144 0.051071431 0.82500005 8.198235e-39
-0.011785715 0.051071431 0.82500005 8.2900705e-39
-0.010140001 0.050700005 0.81900007 8.2900663e-39
-0.0085590482 0.050576195 0.81700003 8.198228e-39
-0.0070028575 0.050576195 0.81700003 8.1056778e-39
-0.0054333336 0.050452385 0.81500006 8.1049632e-39
-0.0038809527 0.050452385 0.81500006 8.0131277e-39
-0.0023257143 0.050390478 0.81400001 8.104603e-39
-0.00077523815 0.050390478 0.81400001 8.1060422e-39
0.00077333336 0.050266668 0.81200004 8.1064065e-39
0.0023257143 0.050390478 0.81400001 8.0145766e-39
0.0038761906 0.050390478 0.81400001 8.0138662e-39
0.0054266672 0.050390478 0.81400001 8.0142221e-39
0.0069600004 0.050266668 0.81200004 8.1060534e-39
0.0085276198 0.050390478 0.81400001 8.1067653e-39
0.010090477 0.050452385 0.81500006 8.0145668e-39
0.011600001 0.050266668 0.81200004 7.8305357e-39
0.013146668 0.050266668 0.81200004 7.9223698e-39
0.014693335 0.050266668 0.81200004 7.9220097e-39
0.0163 0.050452385 0.81500006 7.9216481e-39
0.017852383 0.050452385 0.81500006 7.829814e-39
0.0195 0.050700005 0.81900007 7.9212936e-39
0.021060001 0.050700005 0.81900007 7.9220139e-39
0.022564763 0.050576195 0.81700003 7.9220181e-39
0.024180003 0.050700005 0.81900007 7.9209391e-39
0.025677145 0.050576195 0.81700003 7.3677709e-39
0.027233334 0.050576195 0.81700003 6.7246099e-39
0.028789526 0.050576195 0.81700003 1.0224451e-38
0.030345716 0.050576195 0.81700003 1.3642132e-38
0.031901907 0.050576195 0.81700003 1.5671878e-38
0.033458099 0.050576195 0.81700003 1.7693688e-38
0.035014287 0.050576195 0.81700003 1.7693683e-38
0.036570478 0.050576195 0.81700003 1.7604004e-38
-0.015000953 0.052898098 0.82900006 8.4744604e-39
-0.013421905 0.052898098 0.82900006 8.2911467e-39
-0.011842858 0.052898098 0.82900006 8.2907852e-39
-0.010164763 0.052387621 0.82100004 8.2911397e-39
-0.008600953 0.052387621 0.82100004 8.1985811e-39
-0.0070200004 0.052260004 0.81900007 8.1978665e-39
-0.0054733339 0.052387621 0.82100004 8.1053163e-39
-0.0039000004 0.052260004 0.81900007 8.1045974e-39
-0.0023342858 0.052132383 0.81700003 8.104596e-39
-0.00077809527 0.052132383 0.81700003 8.104603e-39
0.00077619054 0.052004766 0.81500006 8.1056863e-39
0.0023342858 0.052132383 0.81700003 8.0138508e-39
0.0039000004 0.052260004 0.81900007 7.9220139e-39
0.0054466669 0.052132383 0.81700003 7.8294637e-39
0.0070200004 0.052260004 0.81900007 7.9220181e-39
0.0085590482 0.052132383 0.81700003 8.0138494e-39
0.010140001 0.052260004 0.81900007 7.9220097e-39
0.011700001 0.052260004 0.81900007 7.9212922e-39
0.013260001 0.052260004 0.81900007 7.8305315e-39
0.014928573 0.05264286 0.82500005 7.8316049e-39
0.016420001 0.052387621 0.82100004 7.8305245e-39
0.01802762 0.052515242 0.82300001 7.83017e-39
0.019642858 0.05264286 0.82500005 7.8305315e-39
0.021162858 0.052515242 0.82300001 7.9227299e-39
0.02267524 0.052387621 0.82100004 8.0145696e-39
0.024239048 0.052387621 0.82100004 8.0142109e-39
0.025802858 0.052387621 0.82100004 7.4588917e-39
0.027366668 0.052387621 0.82100004 6.9018293e-39
0.028860003 0.052260004 0.81900007 1.0319522e-38
0.030420002 0.052260004 0.81900007 1.3740429e-38
0.03198 0.052260004 0.81900007 1.5764431e-38
0.033621907 0.052387621 0.82100004 1.7786962e-38
0.035185717 0.052387621 0.82100004 1.7694765e-38
0.036660001 0.052260004 0.81900007 1.7695842e-38
-0.015000953 0.054477148 0.82900006 8.5663015e-39
-0.013421905 0.054477148 0.82900006 8.3826263e-39
-0.011842858 0.054477148 0.82900006 8.3826221e-39
-0.010189525 0.054082859 0.82300001 8.290425e-39
-0.008621905 0.054082859 0.82300001 8.2900649e-39
-0.0070885718 0.05434572 0.82700002 8.1978721e-39
-0.0055000004 0.054214288 0.82500005 8.1967973e-39
-0.0039095241 0.053951431 0.82100004 8.1967959e-39
-0.002357143 0.054214288 0.82500005 8.1967959e-39
-0.00078571436 0.054214288 0.82500005 8.1053219e-39
0.00078000006 0.053820003 0.81900007 8.1056849e-39
0.0023457145 0.053951431 0.82100004 8.0142053e-39
0.0039190478 0.054082859 0.82300001 7.8305315e-39
0.0054866672 0.054082859 0.82300001 7.646506e-39
0.0070542861 0.054082859 0.82300001 7.8305399e-39
0.008621905 0.054082859 0.82300001 7.9216565e-39
0.010214286 0.054214288 0.82500005 7.9212978e-39
0.011785715 0.054214288 0.82500005 7.9220139e-39
0.013357144 0.054214288 0.82500005 7.830177e-39
0.014964763 0.05434572 0.82700002 7.7390575e-39
0.016500002 0.054214288 0.82500005 7.7390547e-39
0.01807143 0.054214288 0.82500005 7.7387002e-39
0.019690478 0.05434572 0.82700002 7.8308972e-39
0.021214288 0.054214288 0.82500005 7.923453e-39
0.022785716 0.054214288 0.82500005 8.0152899e-39
0.024357144 0.054214288 0.82500005 8.1064051e-39
0.025865717 0.054082859 0.82300001 7.6439962e-39
0.027433336 0.054082859 0.82300001 7.093391e-39
0.028930478 0.053951431 0.82100004 1.0502474e-38
0.030568574 0.054082859 0.82300001 1.3827241e-38
0.032058097 0.053951431 0.82100004 1.5857702e-38
0.033703811 0.054082859 0.82300001 1.7786603e-38
0.035357144 0.054214288 0.82500005 1.77866e-38
0.036928575 0.054214288 0.82500005 1.7695484e-38
0.038220003 0.053820003 0.81900007 1.8064262e-38
-0.015000953 0.056056194 0.82900006 8.7506955e-39
-0.013421905 0.056056194 0.82900006 8.6574181e-39
-0.011842858 0.056056194 0.82900006 8.5662931e-39
-0.010362858 0.056597147 0.83700001 8.4733828e-39
-0.0087266676 0.056326669 0.83300006 8.3822647e-39
-0.0071400004 0.056326669 0.83300006 8.2904292e-39
-0.0055533336 0.056326669 0.83300006 8.1975175e-39
-0.0039666668 0.056326669 0.83300006 8.1968001e-39
-0.0023800002 0.056326669 0.83300006 8.1978763e-39
-0.0007933334 0.056326669 0.83300006 8.1978777e-39
0.0007933334 0.056326669 0.83300006 8.1064009e-39
0.0023742858 0.056191433 0.83100003 8.1067554e-39
0.0039571431 0.056191433 0.83100003 8.0145556e-39
0.0055400003 0.056191433 0.83100003 7.9223684e-39
0.0071228575 0.056191433 0.83100003 7.9220153e-39
0.0087266676 0.056326669 0.83300006 8.0127774e-39
0.010313334 0.056326669 0.83300006 8.013855e-39
0.011900001 0.056326669 0.83300006 8.1067653e-39
0.013486668 0.056326669 0.83300006 7.9227341e-39
0.015000953 0.056056194 0.82900006 7.8305399e-39
0.016580001 0.056056194 0.82900006 7.922374e-39
0.018159049 0.056056194 0.82900006 7.9223782e-39
0.019738097 0.056056194 0.82900006 8.014934e-39
0.021265715 0.055920955 0.82700002 8.1078457e-39
0.022896191 0.056056194 0.82900006 8.2000399e-39
0.024416192 0.055920955 0.82700002 8.2925886e-39
0.026180001 0.056326669 0.83300006 7.8294595e-39
0.027766669 0.056326669 0.83300006 7.2741908e-39
0.029353335 0.056326669 0.83300006 1.0597177e-38
0.030865716 0.056191433 0.83100003 1.4014139e-38
0.032370478 0.056056194 0.82900006 1.5948102e-38
0.03386762 0.055920955 0.82700002 1.7878438e-38
0.035442859 0.055920955 0.82700002 1.7786241e-38
0.037018098 0.055920955 0.82700002 1.7786602e-38
0.038593337 0.055920955 0.82700002 1.806426e-38
0.040168572 0.055920955 0.82700002 1.834121e-38
-0.01355143 0.058191434 0.83700001 8.843603e-39
-0.011957143 0.058191434 0.83700001 8.7510459e-39
-0.010362858 0.058191434 0.83700001 8.5670175e-39
-0.0087895244 0.05833048 0.83900005 8.474466e-39
-0.0071914289 0.05833048 0.83900005 8.3829892e-39
-0.0055933339 0.05833048 0.83900005 8.2897188e-39
-0.0039761909 0.058052383 0.83500004 8.1071226e-39
-0.0023914287 0.058191434 0.83700001 8.1993168e-39
-0.00079714291 0.058191434 0.83700001 8.1993168e-39
0.00079714291 0.058191434 0.83700001 8.1993168e-39
0.002397143 0.05833048 0.83900005 8.1074785e-39
0.0039952383 0.05833048 0.83900005 8.1064009e-39
0.0055800006 0.058191434 0.83700001 8.1067624e-39
0.0071742861 0.058191434 0.83700001 8.1064079e-39
0.0087685715 0.058191434 0.83700001 8.1064093e-39
0.010338096 0.058052383 0.83500004 8.1978875e-39
0.011928572 0.058052383 0.83500004 8.1989623e-39
0.013519049 0.058052383 0.83500004 8.1074841e-39
0.015109525 0.058052383 0.83500004 7.923453e-39
0.016700001 0.058052383 0.83500004 8.0142123e-39
0.018290477 0.058052383 0.83500004 8.1071282e-39
0.019880954 0.058052383 0.83500004 8.1989679e-39
0.021522859 0.058191434 0.83700001 8.2922397e-39
0.023117144 0.058191434 0.83700001 8.3847955e-39
0.02471143 0.058191434 0.83700001 8.4766254e-39
0.026305716 0.058191434 0.83700001 8.0156472e-39
0.027900001 0.058191434 0.83700001 7.4646791e-39
0.029494287 0.058191434 0.83700001 1.0780846e-38
0.031088574 0.058191434 0.83700001 1.4102746e-38
0.032604765 0.058052383 0.83500004 1.6042091e-38
0.034195241 0.058052383 0.83500004 1.7878081e-38
0.035700001 0.057913337 0.83300006 1.7877359e-38
0.037286669 0.057913337 0.83300006 1.778732e-38
0.038780004 0.05777429 0.83100003 1.8064981e-38
-0.015181906 0.059928574 0.83900005 9.3060147e-39
-0.01358381 0.059928574 0.83900005 9.1216248e-39
-0.011985715 0.059928574 0.83900005 8.9368748e-39
-0.01038762 0.059928574 0.83900005 8.8443247e-39
-0.0087895244 0.059928574 0.83900005 8.7521319e-39
-0.0071914289 0.059928574 0.83900005 8.5688196e-39
-0.0055933339 0.059928574 0.83900005 8.4762652e-39
-0.0039857146 0.05978572 0.83700001 8.4769813e-39
-0.002397143 0.059928574 0.83900005 8.4766212e-39
-0.00079904764 0.059928574 0.83900005 8.4766212e-39
0.00080095243 0.060071431 0.84100002 8.4766212e-39
0.0024085715 0.060214289 0.84300005 8.3851444e-39
0.004004762 0.060071431 0.84100002 8.3844269e-39
0.0055933339 0.059928574 0.83900005 8.3840696e-39
0.0071914289 0.059928574 0.83900005 8.2918754e-39
0.0087895244 0.059928574 0.83900005 8.2918768e-39
0.01038762 0.059928574 0.83900005 8.199684e-39
0.011957143 0.05978572 0.83700001 8.2000413e-39
0.01355143 0.05978572 0.83700001 8.108203e-39
0.015145715 0.05978572 0.83700001 8.1092792e-39
0.01678 0.059928574 0.83900005 8.2003958e-39
0.018378096 0.059928574 0.83900005 8.2925956e-39
0.019976191 0.059928574 0.83900005 8.3844353e-39
0.021574287 0.059928574 0.83900005 8.3851584e-39
0.023172382 0.059928574 0.83900005 8.4773568e-39
0.024770478 0.059928574 0.83900005 8.5699028e-39
0.026305716 0.05978572 0.83700001 8.0160116e-39
0.027966669 0.059928574 0.83900005 7.4607344e-39
0.029564764 0.059928574 0.83900005 1.0873755e-38
0.03116286 0.059928574 0.83900005 1.428857e-38
0.032760955 0.059928574 0.83900005 1.5947746e-38
0.034359049 0.059928574 0.83900005 1.7694051e-38
0.035957146 0.059928574 0.83900005 1.7878436e-38
0.03755524 0.059928574 0.83900005 1.8155381e-38
0.039153337 0.059928574 0.83900005 1.8248296e-38
-0.016860001 0.061820004 0.84300005 9.9510338e-39
-0.015254287 0.061820004 0.84300005 9.6755259e-39
-0.013616191 0.061673336 0.84100002 9.3067462e-39
-0.012014287 0.061673336 0.84100002 9.2138331e-39
-0.010437144 0.061820004 0.84300005 9.1216374e-39
-0.0088104764 0.061673336 0.84100002 8.9376063e-39
-0.0072085718 0.061673336 0.84100002 8.7539339e-39
-0.0056200004 0.061820004 0.84300005 8.7535752e-39
-0.0039952383 0.061526671 0.83900005 8.7535738e-39
-0.0024085715 0.061820004 0.84300005 8.7532151e-39
-0.00080285722 0.061820004 0.84300005 8.7535724e-39
0.00080095243 0.061673336 0.84100002 8.7539311e-39
0.0024085715 0.061820004 0.84300005 8.6617369e-39
0.004004762 0.061673336 0.84100002 8.6620956e-39
0.0056200004 0.061820004 0.84300005 8.5691867e-39
0.0072085718 0.061673336 0.84100002 8.4769939e-39
0.0088104764 0.061673336 0.84100002 8.3847997e-39
0.01038762 0.061526671 0.83900005 8.2926041e-39
0.011985715 0.061526671 0.83900005 8.200407e-39
0.01358381 0.061526671 0.83900005 8.199328e-39
0.015181906 0.061526671 0.83900005 8.200763e-39
0.01682 0.061673336 0.84100002 8.3851514e-39
0.018421905 0.061673336 0.84100002 8.4773484e-39
0.020023812 0.061673336 0.84100002 8.4773526e-39
0.021625716 0.061673336 0.84100002 8.4777156e-39
0.023227621 0.061673336 0.84100002 8.5691979e-39
0.024829526 0.061673336 0.84100002 8.6613866e-39
0.02643143 0.061673336 0.84100002 8.0170976e-39
0.028033335 0.061673336 0.84100002 7.373931e-39
0.029635239 0.061673336 0.84100002 1.0872329e-38
0.03116286 0.061526671 0.83900005 1.4378617e-38
0.032839049 0.061673336 0.84100002 1.5949544e-38
0.034440953 0.061673336 0.84100002 1.7510383e-38
0.036042858 0.061673336 0.84100002 1.7969914e-38
0.037644763 0.061673336 0.84100002 1.8430888e-38
0.039060004 0.061380003 0.83700001 1.8523801e-38
-0.016860001 0.06342572 0.84300005 9.9510478e-39
-0.015290477 0.063576192 0.84500003 9.6755413e-39
-0.013648572 0.06342572 0.84300005 9.4915102e-39
-0.012042858 0.06342572 0.84300005 9.3989544e-39
-0.010437144 0.06342572 0.84300005 9.3071147e-39
-0.0088523813 0.063576192 0.84500003 9.1230794e-39
-0.0072257146 0.06342572 0.84300005 9.0308852e-39
-0.0056333337 0.063576192 0.84500003 8.9386909e-39
-0.0040238099 0.063576192 0.84500003 8.9386909e-39
-0.0024142859 0.063576192 0.84500003 8.8464953e-39
-0.00080476195 0.063576192 0.84500003 8.846854e-39
0.00080476195 0.063576192 0.84500003 8.7546584e-39
0.0024142859 0.063576192 0.84500003 8.7542997e-39
0.0040238099 0.063576192 0.84500003 8.6621054e-39
0.0056200004 0.06342572 0.84300005 8.5699154e-39
0.0072257146 0.06342572 0.84300005 8.5692008e-39
0.0088314293 0.06342572 0.84300005 8.5688392e-39
0.010412382 0.06327524 0.84100002 8.4773596e-39
0.012014287 0.06327524 0.84100002 8.3855199e-39
0.013616191 0.06327524 0.84100002 8.385157e-39
0.015218096 0.06327524 0.84100002 8.4769939e-39
0.016860001 0.06342572 0.84300005 8.4777114e-39
0.018465716 0.06342572 0.84300005 8.5699084e-39
0.02007143 0.06342572 0.84300005 8.5702685e-39
0.021677144 0.06342572 0.84300005 8.6624684e-39
0.023282859 0.06342572 0.84300005 8.7543081e-39
0.024888573 0.06342572 0.84300005 8.8464995e-39
0.026494287 0.06342572 0.84300005 8.2929726e-39
0.028100003 0.06342572 0.84300005 7.6458586e-39
0.029705716 0.06342572 0.84300005 1.1058519e-38
0.031237144 0.06327524 0.84100002 1.4382929e-38
0.032917146 0.06342572 0.84300005 1.603959e-38
0.034522861 0.06342572 0.84300005 1.7601504e-38
0.036128573 0.06342572 0.84300005 1.7970991e-38
0.037644763 0.06327524 0.84100002 1.8247934e-38
0.039153337 0.063124768 0.83900005 1.8432681e-38
-0.015290477 0.065185718 0.84500003 9.7677411e-39
-0.013680954 0.065185718 0.84500003 9.5837086e-39
-0.012114286 0.065417148 0.84800005 9.4915116e-39
-0.010548572 0.065725721 0.85200006 9.3996705e-39
-0.0089047626 0.065571435 0.85000002 9.3996663e-39
-0.0072685718 0.065417148 0.84800005 9.307472e-39
-0.0056333337 0.065185718 0.84500003 9.2149191e-39
-0.0040380955 0.065417148 0.84800005 9.0312481e-39
-0.0024228573 0.065417148 0.84800005 9.0312495e-39
-0.00080476195 0.065185718 0.84500003 8.9394112e-39
0.00080761907 0.065417148 0.84800005 8.8468568e-39
0.0024228573 0.065417148 0.84800005 8.7550199e-39
0.0040238099 0.065185718 0.84500003 8.6624656e-39
0.0056333337 0.065185718 0.84500003 8.5702727e-39
0.0072428575 0.065185718 0.84500003 8.6613922e-39
0.0088523813 0.065185718 0.84500003 8.6617509e-39
0.010461905 0.065185718 0.84500003 8.6621096e-39
0.012042858 0.065031432 0.84300005 8.5702727e-39
0.013648572 0.065031432 0.84300005 8.6621068e-39
0.015254287 0.065031432 0.84300005 8.6621068e-39
0.016960001 0.065417148 0.84800005 8.662467e-39
0.018509526 0.065185718 0.84500003 8.6628271e-39
0.020119049 0.065185718 0.84500003 8.7550227e-39
0.021728573 0.065185718 0.84500003 8.7553843e-39
0.023338096 0.065185718 0.84500003 8.9390595e-39
0.024947621 0.065185718 0.84500003 9.0308922e-39
0.026557144 0.065185718 0.84500003 8.4791603e-39
0.028166668 0.065185718 0.84500003 7.9285439e-39
0.029776193 0.065185718 0.84500003 1.114964e-38
0.031385716 0.065185718 0.84500003 1.4379342e-38
0.033112384 0.065417148 0.84800005 1.6040305e-38
0.034604765 0.065185718 0.84500003 1.7695133e-38
0.036214288 0.065185718 0.84500003 1.7880235e-38
0.037734289 0.065031432 0.84300005 1.8064625e-38
0.039340004 0.065031432 0.84300005 1.8341209e-38
-0.013729525 0.067032382 0.84800005 9.675907e-39
-0.012200001 0.067506671 0.85400003 9.58371e-39
-0.010573334 0.067506671 0.85400003 9.4918689e-39
-0.0089257145 0.067348577 0.85200006 9.4000278e-39
-0.0073028575 0.067348577 0.85200006 9.308551e-39
-0.0056800004 0.067348577 0.85200006 9.1241626e-39
-0.0040476192 0.067190483 0.85000002 9.0319712e-39
-0.0024285717 0.067190483 0.85000002 9.0319726e-39
-0.00080952386 0.067190483 0.85000002 9.0319698e-39
0.00080952386 0.067190483 0.85000002 8.939414e-39
0.0024285717 0.067190483 0.85000002 8.9394112e-39
0.0040380955 0.067032382 0.84800005 8.9386909e-39
0.0056533339 0.067032382 0.84800005 8.9383322e-39
0.0072685718 0.067032382 0.84800005 8.8464953e-39
0.0088838097 0.067032382 0.84800005 8.8468568e-39
0.010499048 0.067032382 0.84800005 8.754664e-39
0.012114286 0.067032382 0.84800005 8.7543081e-39
0.013729525 0.067032382 0.84800005 8.8465037e-39
0.015344763 0.067032382 0.84800005 8.8468624e-39
0.017000001 0.067190483 0.85000002 8.8472212e-39
0.018619049 0.067190483 0.85000002 8.7557458e-39
0.020190477 0.067032382 0.84800005 8.8475813e-39
0.021728573 0.066795245 0.84500003 8.8479428e-39
0.023586668 0.067506671 0.85400003 8.9397811e-39
0.025036192 0.067032382 0.84800005 9.1234507e-39
0.026651431 0.067032382 0.84800005 8.5720762e-39
0.028266668 0.067032382 0.84800005 8.1132953e-39
0.029952383 0.067190483 0.85000002 1.1337619e-38
0.031571429 0.067190483 0.85000002 1.4658077e-38
0.033190478 0.067190483 0.85000002 1.6224332e-38
0.034809526 0.067190483 0.85000002 1.7788762e-38
0.036428574 0.067190483 0.85000002 1.7972072e-38
0.037958097 0.067032382 0.84800005 1.8156463e-38
-0.013859048 0.069295242 0.85600007 9.7677453e-39
-0.012314286 0.069780961 0.86200005 9.6755483e-39
-0.01064762 0.069619052 0.86000001 9.5840659e-39
-0.0089676194 0.069295242 0.85600007 9.4918675e-39
-0.0073200003 0.069133341 0.85400003 9.3081951e-39
-0.0056933337 0.069133341 0.85400003 9.1241654e-39
-0.0040666671 0.069133341 0.85400003 8.9404944e-39
-0.0024400002 0.069133341 0.85400003 9.0319726e-39
-0.00081333338 0.069133341 0.85400003 9.1238067e-39
0.00081523816 0.069295242 0.85600007 9.1234479e-39
0.0024457145 0.069295242 0.85600007 9.0316096e-39
0.0040476192 0.068809532 0.85000002 9.1230836e-39
0.0056666671 0.068809532 0.85000002 9.2145589e-39
0.0072685718 0.068647623 0.84800005 9.1223647e-39
0.0089047626 0.068809532 0.85000002 8.9390539e-39
0.010548572 0.068971433 0.85200006 8.9390567e-39
0.012200001 0.069133341 0.85400003 8.9390595e-39
0.013794286 0.068971433 0.85200006 9.0308978e-39
0.015380953 0.068809532 0.85000002 9.0312565e-39
0.017080002 0.069133341 0.85400003 8.9397797e-39
0.018706668 0.069133341 0.85400003 8.8479442e-39
0.020333335 0.069133341 0.85400003 8.939421e-39
0.022062859 0.069457151 0.85800004 8.9397811e-39
0.023697145 0.069457151 0.85800004 9.0316166e-39
0.02533143 0.069457151 0.85800004 9.1238067e-39
0.026902858 0.069295242 0.85600007 8.7564605e-39
0.028533336 0.069295242 0.85600007 8.298397e-39
0.030234288 0.069457151 0.85800004 1.1612405e-38
0.031868573 0.069457151 0.85800004 1.484067e-38
0.033346668 0.069133341 0.85400003 1.6410514e-38
0.034973335 0.069133341 0.85400003 1.7879522e-38
0.03651429 0.068971433 0.85200006 1.806319e-38
0.038047623 0.068809532 0.85000002 1.8156463e-38
0.039760001 0.068971433 0.85200006 1.8340853e-38
-0.015688572 0.07183715 0.86700004 1.0136528e-38
-0.014037143 0.07183715 0.86700004 1.0043972e-38
-0.012357144 0.071671434 0.86500007 9.9521324e-39
-0.010672382 0.07142286 0.86200005 9.8602941e-39
-0.0090304771 0.07142286 0.86200005 9.6762602e-39
-0.0073714289 0.071257144 0.86000001 9.492229e-39
-0.0057333335 0.071257144 0.86000001 9.3081965e-39
-0.0040952382 0.071257144 0.86000001 9.216361e-39
-0.002457143 0.071257144 0.86000001 9.2163596e-39
-0.00081714289 0.071091436 0.85800004 9.216361e-39
0.00081904768 0.071257144 0.86000001 9.2160037e-39
0.002457143 0.071257144 0.86000001 9.2160023e-39
0.0040952382 0.071257144 0.86000001 9.215282e-39
0.0057333335 0.071257144 0.86000001 9.2149219e-39
0.0073714289 0.071257144 0.86000001 9.123085e-39
0.0090095242 0.071257144 0.86000001 9.1234465e-39
0.01064762 0.071257144 0.86000001 9.0316138e-39
0.012257144 0.071091436 0.85800004 9.0319768e-39
0.013923811 0.071257144 0.86000001 9.0319796e-39
0.015489525 0.07092572 0.85600007 9.0319796e-39
0.017120002 0.07092572 0.85600007 9.0319796e-39
0.018794287 0.071091436 0.85800004 9.0316208e-39
0.020476192 0.071257144 0.86000001 9.0316194e-39
0.022114288 0.071257144 0.86000001 9.031618e-39
0.023752382 0.071257144 0.86000001 9.1234521e-39
0.025390478 0.071257144 0.86000001 9.2159995e-39
0.027028574 0.071257144 0.86000001 8.7550213e-39
0.028666668 0.071257144 0.86000001 8.3841313e-39
0.030304763 0.071257144 0.86000001 1.1613119e-38
0.031942859 0.071257144 0.86000001 1.4844256e-38
0.033502858 0.071091436 0.85800004 1.640872e-38
0.035055239 0.07092572 0.85600007 1.7969563e-38
