# .PCD v0.7 - Point Cloud Data file format
VERSION 0.7
FIELDS x y z rgb
SIZE 4 4 4 4
TYPE F F F F
COUNT 1 1 1 1
WIDTH 960
HEIGHT 1
VIEWPOINT 0 0 0 1 0 0 0
POINTS 960
DATA ascii
0.063396193 -0.0007638096 0.80200005 1.8707479e-38
0.065085717 -0.00076571433 0.80400002 1.861456e-38
-0.028860003 0.00078000006 0.81900007 8.1978693e-39
-0.027233334 0.00077809527 0.81700003 8.1982294e-39
-0.025677145 0.00077809527 0.81700003 8.1996643e-39
-0.024120955 0.00077809527 0.81700003 8.3847717e-39
-0.022509525 0.00077619054 0.81500006 8.5684426e-39
-0.020957144 0.00077619054 0.81500006 8.5691615e-39
-0.019404763 0.00077619054 0.81500006 8.5688028e-39
-0.017852383 0.00077619054 0.81500006 8.5688028e-39
-0.016340001 0.00077809527 0.81700003 8.5688028e-39
-0.014783811 0.00077809527 0.81700003 8.5691615e-39
-0.01322762 0.00077809527 0.81700003 8.5688084e-39
-0.011642857 0.00077619054 0.81500006 8.7528437e-39
-0.010090477 0.00077619054 0.81500006 8.9361546e-39
-0.0085380962 0.00077619054 0.81500006 8.8446764e-39
-0.0069857147 0.00077619054 0.81500006 8.7521234e-39
-0.0054333336 0.00077619054 0.81500006 8.660288e-39
-0.0038809527 0.00077619054 0.81500006 8.4766184e-39
-0.0023514286 0.00078380958 0.82300001 8.6602908e-39
-0.00078380958 0.00078380958 0.82300001 8.7524864e-39
0.00076952385 0.00076952385 0.80800003 9.1201885e-39
0.0023085715 0.00076952385 0.80800003 9.397846e-39
0.0038476193 0.00076952385 0.80800003 9.5825918e-39
0.0054000001 0.00077142863 0.81000006 9.6729979e-39
0.0069428575 0.00077142863 0.81000006 1.0870812e-38
0.0085066669 0.00077333336 0.81200004 1.2065761e-38
0.010053334 0.00077333336 0.81200004 1.0967693e-38
0.011600001 0.00077333336 0.81200004 9.857392e-39
0.013146668 0.00077333336 0.81200004 8.7499598e-39
0.014693335 0.00077333336 0.81200004 7.6490199e-39
0.016240001 0.00077333336 0.81200004 8.3822801e-39
0.017742859 0.00077142863 0.81000006 9.0283614e-39
0.019333335 0.00077333336 0.81200004 9.2159827e-39
0.020880001 0.00077333336 0.81200004 9.3070867e-39
0.022426669 0.00077333336 0.81200004 1.0133592e-38
0.023914287 0.00077142863 0.81000006 1.0866836e-38
0.025457144 0.00077142863 0.81000006 9.5782618e-39
0.027066668 0.00077333336 0.81200004 8.1964217e-39
0.028613335 0.00077333336 0.81200004 7.8269259e-39
0.030160002 0.00077333336 0.81200004 7.4599371e-39
0.031706668 0.00077333336 0.81200004 7.5514097e-39
0.033253334 0.00077333336 0.81200004 7.5521257e-39
0.0348 0.00077333336 0.81200004 7.5517656e-39
0.03634667 0.00077333336 0.81200004 7.5521271e-39
0.037893336 0.00077333336 0.81200004 7.4595784e-39
0.039440002 0.00077333336 0.81200004 7.3677457e-39
0.040986668 0.00077333336 0.81200004 7.4585092e-39
0.041904766 0.00076190481 0.80000001 7.5503405e-39
0.043428574 0.00076190481 0.80000001 7.458142e-39
0.044952385 0.00076190481 0.80000001 7.3677373e-39
0.046476193 0.00076190481 0.80000001 7.3677331e-39
0.048000004 0.00076190481 0.80000001 7.3673687e-39
0.049523812 0.00076190481 0.80000001 7.0911406e-39
0.05117524 0.0007638096 0.80200005 6.7245244e-39
0.052702859 0.0007638096 0.80200005 7.0925909e-39
0.054500956 0.00076761912 0.80600005 7.3662855e-39
0.056036193 0.00076761912 0.80600005 6.3524895e-39
0.057571433 0.00076761912 0.80600005 5.3423803e-39
0.05910667 0.00076761912 0.80600005 1.0226962e-38
0.060491432 0.00076571433 0.80400002 1.5114376e-38
0.062022861 0.00076571433 0.80400002 1.6868619e-38
0.063554287 0.00076571433 0.80400002 1.8614566e-38
0.065085717 0.00076571433 0.80400002 1.8614204e-38
-0.028930478 0.0023457145 0.82100004 8.290788e-39
-0.027300002 0.0023400001 0.81900007 8.1996741e-39
-0.025740001 0.0023400001 0.81900007 8.2007489e-39
-0.024180003 0.0023400001 0.81900007 8.3847759e-39
-0.022564763 0.0023342858 0.81700003 8.568807e-39
-0.021008573 0.0023342858 0.81700003 8.6606439e-39
-0.019452382 0.0023342858 0.81700003 8.6606439e-39
-0.017896192 0.0023342858 0.81700003 8.6606439e-39
-0.016340001 0.0023342858 0.81700003 8.6606453e-39
-0.014783811 0.0023342858 0.81700003 8.5688112e-39
-0.013260001 0.0023400001 0.81900007 8.5684595e-39
-0.011671429 0.0023342858 0.81700003 8.5688252e-39
-0.010140001 0.0023400001 0.81900007 8.5684623e-39
-0.008600953 0.0023457145 0.82100004 8.5684567e-39
-0.0070371432 0.0023457145 0.82100004 8.5684567e-39
-0.0054733339 0.0023457145 0.82100004 8.4766198e-39
-0.0039190478 0.0023514286 0.82300001 8.3844227e-39
-0.0023514286 0.0023514286 0.82300001 8.4755366e-39
-0.00078380958 0.0023514286 0.82300001 8.5662776e-39
0.00078571436 0.002357143 0.82500005 8.7513653e-39
0.0023257143 0.0023257143 0.81400001 8.843582e-39
0.0038761906 0.0023257143 0.81400001 8.7532039e-39
0.0054266672 0.0023257143 0.81400001 8.6638837e-39
0.0069771432 0.0023257143 0.81400001 9.4925583e-39
0.0085276198 0.0023257143 0.81400001 1.0418106e-38
0.010078096 0.0023257143 0.81400001 9.9524883e-39
0.011628572 0.0023257143 0.81400001 9.5790157e-39
0.013179049 0.0023257143 0.81400001 9.027253e-39
0.014729525 0.0023257143 0.81400001 8.4769729e-39
0.016280001 0.0023257143 0.81400001 8.9372406e-39
0.017830478 0.0023257143 0.81400001 9.4904228e-39
0.019380953 0.0023257143 0.81400001 9.2149317e-39
0.02093143 0.0023257143 0.81400001 9.0319529e-39
0.022481907 0.0023257143 0.81400001 9.397476e-39
0.023973335 0.0023200002 0.81200004 9.7658886e-39
0.025520002 0.0023200002 0.81200004 8.9346986e-39
0.027066668 0.0023200002 0.81200004 8.1045918e-39
0.028613335 0.0023200002 0.81200004 7.9205621e-39
0.030160002 0.0023200002 0.81200004 7.6446913e-39
0.031784765 0.0023257143 0.81400001 7.6446843e-39
0.033335239 0.0023257143 0.81400001 7.7365212e-39
0.034885716 0.0023257143 0.81400001 7.7368813e-39
0.036436193 0.0023257143 0.81400001 7.7372414e-39
0.03798667 0.0023257143 0.81400001 7.6450472e-39
0.039537147 0.0023257143 0.81400001 7.5532131e-39
0.040986668 0.0023200002 0.81200004 7.6439738e-39
0.042533334 0.0023200002 0.81200004 7.7354464e-39
0.044080004 0.0023200002 0.81200004 7.6436067e-39
0.045064766 0.0022914286 0.80200005 7.5521271e-39
0.046592385 0.0022914286 0.80200005 7.5521243e-39
0.048000004 0.0022857145 0.80000001 7.5517628e-39
0.049771432 0.002297143 0.80400002 7.368089e-39
0.051302861 0.002297143 0.80400002 7.0925909e-39
0.052834291 0.002297143 0.80400002 7.2762689e-39
0.054771431 0.0023142858 0.81000006 7.4599217e-39
0.05631429 0.0023142858 0.81000006 6.536885e-39
0.057714291 0.0023085715 0.80800003 5.6143093e-39
0.059253339 0.0023085715 0.80800003 1.059862e-38
0.060641907 0.0023028573 0.80600005 1.5580372e-38
0.062177148 0.0023028573 0.80600005 1.7052645e-38
0.063712388 0.0023028573 0.80600005 1.8614924e-38
0.065247625 0.0023028573 0.80600005 1.8614564e-38
-0.028930478 0.0039095241 0.82100004 8.291867e-39
-0.027366668 0.0039095241 0.82100004 8.292946e-39
-0.025802858 0.0039095241 0.82100004 8.2011105e-39
-0.024239048 0.0039095241 0.82100004 8.3847829e-39
-0.022620002 0.0039000004 0.81900007 8.568814e-39
-0.021060001 0.0039000004 0.81900007 8.6606523e-39
-0.019452382 0.0038904764 0.81700003 8.7528423e-39
-0.017896192 0.0038904764 0.81700003 8.7524808e-39
-0.016340001 0.0038904764 0.81700003 8.7528395e-39
-0.014820001 0.0039000004 0.81900007 8.6599278e-39
-0.013260001 0.0039000004 0.81900007 8.4766198e-39
-0.011700001 0.0039000004 0.81900007 8.3847899e-39
-0.010164763 0.0039095241 0.82100004 8.2011147e-39
-0.008600953 0.0039095241 0.82100004 8.2918712e-39
-0.0070371432 0.0039095241 0.82100004 8.3844241e-39
-0.0054866672 0.0039190478 0.82300001 8.3844241e-39
-0.0039285715 0.0039285715 0.82500005 8.2925858e-39
-0.002357143 0.0039285715 0.82500005 8.3833423e-39
-0.00078380958 0.0039190478 0.82300001 8.3833339e-39
0.00078571436 0.0039285715 0.82500005 8.3829654e-39
0.0023457145 0.0039095241 0.82100004 8.2915026e-39
0.0039190478 0.0039190478 0.82300001 7.9227397e-39
0.0054733339 0.0039095241 0.82100004 7.5586235e-39
0.0070371432 0.0039095241 0.82100004 8.2011119e-39
0.0085800001 0.0039000004 0.81900007 8.7553689e-39
0.010090477 0.0038809527 0.81500006 9.0280209e-39
0.011671429 0.0038904764 0.81700003 9.2116723e-39
0.013260001 0.0039000004 0.81900007 9.3034882e-39
0.014783811 0.0038904764 0.81700003 9.3045714e-39
0.016340001 0.0038904764 0.81700003 9.5829561e-39
0.017896192 0.0038904764 0.81700003 9.8566787e-39
0.019404763 0.0038809527 0.81500006 9.3053182e-39
0.020957144 0.0038809527 0.81500006 8.7528535e-39
0.022481907 0.0038761906 0.81400001 8.7503256e-39
0.024032382 0.0038761906 0.81400001 8.6592033e-39
0.025582859 0.0038761906 0.81400001 8.3815403e-39
0.027133334 0.0038761906 0.81400001 8.0138381e-39
0.028683811 0.0038761906 0.81400001 7.92236e-39
0.030234288 0.0038761906 0.81400001 7.8301615e-39
0.031784765 0.0038761906 0.81400001 7.8301573e-39
0.033376191 0.0038809527 0.81500006 7.8301573e-39
0.034928575 0.0038809527 0.81500006 7.8305175e-39
0.036480956 0.0038809527 0.81500006 7.8301587e-39
0.03798667 0.0038761906 0.81400001 7.8301587e-39
0.039537147 0.0038761906 0.81400001 7.7379659e-39
0.04108762 0.0038761906 0.81400001 7.8287252e-39
0.042638097 0.0038761906 0.81400001 7.8287224e-39
0.044080004 0.0038666669 0.81200004 7.8283623e-39
0.04562667 0.0038666669 0.81200004 7.7368841e-39
0.047057144 0.0038571432 0.81000006 7.736524e-39
0.048600003 0.0038571432 0.81000006 7.7365212e-39
0.050019052 0.0038476193 0.80800003 7.6443255e-39
0.051813338 0.0038666669 0.81200004 7.4606588e-39
0.053228576 0.0038571432 0.81000006 7.5521383e-39
0.054771431 0.0038571432 0.81000006 7.5510481e-39
0.056453336 0.0038666669 0.81200004 6.7202084e-39
0.057857148 0.0038571432 0.81000006 5.8995058e-39
0.059400003 0.0038571432 0.81000006 1.0972416e-38
0.060792387 0.0038476193 0.80800003 1.5946278e-38
0.062331434 0.0038476193 0.80800003 1.7330662e-38
0.063712388 0.0038380956 0.80600005 1.8614203e-38
0.065409526 0.0038476193 0.80800003 1.8613483e-38
-0.027433336 0.0054866672 0.82300001 8.476617e-39
-0.025865717 0.0054866672 0.82300001 8.3844269e-39
-0.024298096 0.0054866672 0.82300001 8.5684595e-39
-0.02267524 0.0054733339 0.82100004 8.6610166e-39
-0.021111431 0.0054733339 0.82100004 8.8454079e-39
-0.0195 0.0054600001 0.81900007 9.1209074e-39
-0.017940002 0.0054600001 0.81900007 8.9375867e-39
-0.016340001 0.0054466669 0.81700003 8.7546332e-39
-0.014820001 0.0054600001 0.81900007 8.7531968e-39
-0.013292382 0.0054733339 0.82100004 8.7524822e-39
-0.011728573 0.0054733339 0.82100004 8.7524836e-39
-0.010189525 0.0054866672 0.82300001 8.7524822e-39
-0.008621905 0.0054866672 0.82300001 8.6602866e-39
-0.0070542861 0.0054866672 0.82300001 8.5684525e-39
-0.0055000004 0.0055000004 0.82500005 8.5684525e-39
-0.0039285715 0.0055000004 0.82500005 8.5684511e-39
-0.002357143 0.0055000004 0.82500005 8.5680895e-39
-0.00078380958 0.0054866672 0.82300001 8.6602837e-39
0.00078380958 0.0054866672 0.82300001 8.6602837e-39
0.002357143 0.0055000004 0.82500005 8.6599306e-39
0.0039285715 0.0055000004 0.82500005 8.5681007e-39
0.0055133337 0.0055133337 0.82700002 8.4766156e-39
0.0070714289 0.0055000004 0.82500005 8.6606369e-39
0.008600953 0.0054733339 0.82100004 8.9354399e-39
0.010140001 0.0054600001 0.81900007 9.0280069e-39
0.011728573 0.0054733339 0.82100004 9.1198354e-39
0.013324763 0.0054866672 0.82300001 9.0283516e-39
0.014856191 0.0054733339 0.82100004 9.0287103e-39
0.016380001 0.0054600001 0.81900007 9.1209046e-39
0.017940002 0.0054600001 0.81900007 9.303505e-39
0.0195 0.0054600001 0.81900007 8.9358085e-39
0.021060001 0.0054600001 0.81900007 8.5663071e-39
0.022564763 0.0054466669 0.81700003 8.3826277e-39
0.024120955 0.0054466669 0.81700003 8.1975189e-39
0.025614288 0.0054333336 0.81500006 8.1060394e-39
0.027166668 0.0054333336 0.81500006 8.0145598e-39
0.028683811 0.0054266672 0.81400001 7.9227215e-39
0.030234288 0.0054266672 0.81400001 7.9230788e-39
0.031784765 0.0054266672 0.81400001 7.9227173e-39
0.033376191 0.0054333336 0.81500006 7.923076e-39
0.034928575 0.0054333336 0.81500006 7.9227173e-39
0.036480956 0.0054333336 0.81500006 7.9223586e-39
0.03798667 0.0054266672 0.81400001 7.9227173e-39
0.039537147 0.0054266672 0.81400001 7.9234348e-39
0.04108762 0.0054266672 0.81400001 7.9223586e-39
0.042690478 0.0054333336 0.81500006 7.9223586e-39
0.044188574 0.0054266672 0.81400001 7.9219984e-39
0.04579524 0.0054333336 0.81500006 7.8301629e-39
0.047289528 0.0054266672 0.81400001 7.8294455e-39
0.048840005 0.0054266672 0.81400001 7.8290868e-39
0.050452385 0.0054333336 0.81500006 7.7368911e-39
0.052004766 0.0054333336 0.81500006 7.6454144e-39
0.053491432 0.0054266672 0.81400001 7.6450542e-39
0.055041909 0.0054266672 0.81400001 7.7372372e-39
0.056592386 0.0054266672 0.81400001 6.9975198e-39
0.058000002 0.0054133339 0.81200004 6.3515128e-39
0.059546672 0.0054133339 0.81200004 1.1613827e-38
0.060942862 0.0054000001 0.81000006 1.6870371e-38
0.062485717 0.0054000001 0.81000006 1.7695852e-38
0.064028576 0.0054000001 0.81000006 1.8519853e-38
0.065733336 0.0054133339 0.81200004 1.852164e-38
0.067445718 0.0054266672 0.81400001 1.8523453e-38
-0.029212384 0.0071057146 0.82900006 8.6606467e-39
-0.027566668 0.0070885718 0.82700002 8.6606481e-39
-0.025928574 0.0070714289 0.82500005 8.5688168e-39
-0.024357144 0.0070714289 0.82500005 8.6602964e-39
-0.022785716 0.0070714289 0.82500005 8.7532137e-39
-0.021162858 0.0070542861 0.82300001 9.1219976e-39
-0.019595239 0.0070542861 0.82300001 9.3971369e-39
-0.017983811 0.0070371432 0.82100004 9.121622e-39
-0.016380001 0.0070200004 0.81900007 8.7535626e-39
-0.014856191 0.0070371432 0.82100004 8.8450393e-39
-0.013324763 0.0070542861 0.82300001 8.9365147e-39
-0.011757144 0.0070542861 0.82300001 9.1201857e-39
-0.010313334 0.0071400004 0.83300006 9.2116625e-39
-0.0087266676 0.0071400004 0.83300006 8.9365133e-39
-0.0071571432 0.0071571432 0.83500004 8.6606495e-39
-0.0055400003 0.0071228575 0.83100003 8.7528465e-39
-0.0039476193 0.0071057146 0.82900006 8.7524878e-39
-0.0023685715 0.0071057146 0.82900006 8.8443233e-39
-0.00078952388 0.0071057146 0.82900006 8.8446876e-39
0.00078952388 0.0071057146 0.82900006 8.9376049e-39
0.0023628573 0.0070885718 0.82700002 9.0290775e-39
0.0039476193 0.0071057146 0.82900006 9.2134617e-39
0.005526667 0.0071057146 0.82900006 9.3045742e-39
0.0070714289 0.0070714289 0.82500005 9.2134505e-39
0.0086638099 0.0070885718 0.82700002 9.0287117e-39
0.010239048 0.0070885718 0.82700002 9.0287201e-39
0.011757144 0.0070542861 0.82300001 9.0283558e-39
0.013324763 0.0070542861 0.82300001 8.8450393e-39
0.014892382 0.0070542861 0.82300001 8.661011e-39
0.016500002 0.0070714289 0.82500005 8.6606537e-39
0.017983811 0.0070371432 0.82100004 8.6602964e-39
0.019595239 0.0070542861 0.82300001 8.4759107e-39
0.021162858 0.0070542861 0.82300001 8.2922355e-39
0.02267524 0.0070371432 0.82100004 8.0163661e-39
0.024180003 0.0070200004 0.81900007 7.6483052e-39
0.025740001 0.0070200004 0.81900007 7.8308986e-39
0.027300002 0.0070200004 0.81900007 7.9234474e-39
0.028789526 0.0070028575 0.81700003 7.922367e-39
0.030271431 0.0069857147 0.81500006 7.923083e-39
0.03182381 0.0069857147 0.81500006 8.0141983e-39
0.033376191 0.0069857147 0.81500006 8.0152731e-39
0.035014287 0.0070028575 0.81700003 8.0152717e-39
0.036570478 0.0070028575 0.81700003 8.0156318e-39
0.038033336 0.0069857147 0.81500006 8.0152731e-39
0.039585717 0.0069857147 0.81500006 8.0152731e-39
0.041340001 0.0070200004 0.81900007 8.0145556e-39
0.042795241 0.0070028575 0.81700003 8.0149143e-39
0.044351432 0.0070028575 0.81700003 8.0152731e-39
0.04579524 0.0069857147 0.81500006 7.9227187e-39
0.047347624 0.0069857147 0.81500006 7.9220012e-39
0.048900004 0.0069857147 0.81500006 7.9216411e-39
0.050576195 0.0070028575 0.81700003 7.9205649e-39
0.052132383 0.0070028575 0.81700003 7.8290896e-39
0.053688575 0.0070028575 0.81700003 7.829091e-39
0.055244766 0.0070028575 0.81700003 7.8276476e-39
0.056800958 0.0070028575 0.81700003 7.3641569e-39
0.058214288 0.0069857147 0.81500006 6.8218222e-39
0.059693336 0.0069771432 0.81400001 1.2352827e-38
0.061093338 0.0069600004 0.81200004 1.7785143e-38
0.062640004 0.0069600004 0.81200004 1.8062115e-38
0.06418667 0.0069600004 0.81200004 1.833726e-38
-0.029212384 0.0086847628 0.82900006 8.753201e-39
-0.027566668 0.0086638099 0.82700002 8.7528437e-39
-0.025928574 0.0086428579 0.82500005 8.7528479e-39
-0.024652382 0.0087476196 0.83500004 8.8446862e-39
-0.023006668 0.0087266676 0.83300006 8.9372476e-39
-0.021420002 0.0087266676 0.83300006 9.0301677e-39
-0.019833334 0.0087266676 0.83300006 9.1219948e-39
-0.017983811 0.008600953 0.82100004 8.9372378e-39
-0.016380001 0.0085800001 0.81900007 8.6606565e-39
-0.014856191 0.008600953 0.82100004 8.7528507e-39
-0.013486668 0.0087266676 0.83300006 8.7521305e-39
-0.011928572 0.0087476196 0.83500004 8.8439631e-39
-0.010338096 0.0087476196 0.83500004 8.9354399e-39
-0.0087266676 0.0087266676 0.83300006 8.6602922e-39
-0.0071571432 0.0087476196 0.83500004 8.4769827e-39
-0.0055666668 0.0087476196 0.83500004 8.5691797e-39
-0.0039666668 0.0087266676 0.83300006 8.7528535e-39
-0.0023800002 0.0087266676 0.83300006 8.7528549e-39
-0.00078761909 0.0086638099 0.82700002 8.8450604e-39
0.00078761909 0.0086638099 0.82700002 8.845789e-39
0.0023685715 0.0086847628 0.82900006 8.9379707e-39
0.0039476193 0.0086847628 0.82900006 8.9375979e-39
0.005526667 0.0086847628 0.82900006 9.0294306e-39
0.0070885718 0.0086638099 0.82700002 8.9372322e-39
0.0086638099 0.0086638099 0.82700002 8.844682e-39
0.010239048 0.0086638099 0.82700002 8.8443261e-39
0.011785715 0.0086428579 0.82500005 8.8436058e-39
0.013357144 0.0086428579 0.82500005 8.5684553e-39
0.014928573 0.0086428579 0.82500005 8.2929516e-39
0.016500002 0.0086428579 0.82500005 8.4766254e-39
0.01802762 0.008621905 0.82300001 8.6602964e-39
0.019595239 0.008621905 0.82300001 8.5684609e-39
0.021162858 0.008621905 0.82300001 8.5688182e-39
0.022730477 0.008621905 0.82300001 8.3847871e-39
0.024239048 0.008600953 0.82100004 8.2011161e-39
0.025802858 0.008600953 0.82100004 8.2922341e-39
0.027366668 0.008600953 0.82100004 8.2925886e-39
0.028860003 0.0085800001 0.81900007 8.2918656e-39
0.030345716 0.0085590482 0.81700003 8.2918642e-39
0.03198 0.0085800001 0.81900007 8.2000259e-39
0.033540003 0.0085800001 0.81900007 8.2007405e-39
0.035100002 0.0085800001 0.81900007 8.200379e-39
0.036660001 0.0085800001 0.81900007 8.2925746e-39
0.038220003 0.0085800001 0.81900007 8.2003818e-39
0.039780002 0.0085800001 0.81900007 8.2000231e-39
0.041340001 0.0085800001 0.81900007 8.2918586e-39
0.042900003 0.0085800001 0.81900007 8.3833367e-39
0.044460002 0.0085800001 0.81900007 8.199307e-39
0.04590762 0.0085590482 0.81700003 8.1071114e-39
0.047463812 0.0085590482 0.81700003 8.1071086e-39
0.048900004 0.0085380962 0.81500006 8.0152731e-39
0.050700005 0.0085800001 0.81900007 8.0141969e-39
0.052260004 0.0085800001 0.81900007 7.9216481e-39
0.053951431 0.008600953 0.82100004 7.8298154e-39
0.055515241 0.008600953 0.82100004 7.7365394e-39
0.056940004 0.0085800001 0.81900007 7.8272917e-39
0.058500003 0.0085800001 0.81900007 7.9227832e-39
0.060060006 0.0085800001 0.81900007 1.3089673e-38
0.061243813 0.0085276198 0.81400001 1.8252934e-38
0.06279429 0.0085276198 0.81400001 1.8247218e-38
0.064344764 0.0085276198 0.81400001 1.8244708e-38
-0.02471143 0.010362858 0.83700001 8.9368818e-39
-0.023117144 0.010362858 0.83700001 9.0297977e-39
-0.021522859 0.010362858 0.83700001 8.9397601e-39
-0.019833334 0.010313334 0.83300006 8.846124e-39
-0.015145715 0.010362858 0.83700001 8.5691769e-39
-0.013519049 0.010338096 0.83500004 8.5688168e-39
-0.011957143 0.010362858 0.83700001 8.5677392e-39
-0.010362858 0.010362858 0.83700001 8.5680937e-39
-0.0087895244 0.01038762 0.83900005 8.3844185e-39
-0.0072085718 0.010412382 0.84100002 8.2014706e-39
-0.0056066671 0.010412382 0.84100002 8.4769813e-39
-0.004004762 0.010412382 0.84100002 8.6610138e-39
-0.0024028574 0.010412382 0.84100002 8.7532123e-39
-0.00080095243 0.010412382 0.84100002 8.8454135e-39
0.00079142861 0.010288572 0.83100003 8.8461394e-39
0.0023685715 0.01026381 0.82900006 8.7535752e-39
0.0039476193 0.01026381 0.82900006 8.7528479e-39
0.0055400003 0.010288572 0.83100003 8.7532053e-39
0.0071228575 0.010288572 0.83100003 8.7532039e-39
0.0087057147 0.010288572 0.83100003 8.6606523e-39
0.010288572 0.010288572 0.83100003 8.6599376e-39
0.011842858 0.01026381 0.82900006 8.6602936e-39
0.013421905 0.01026381 0.82900006 8.29259e-39
0.015000953 0.01026381 0.82900006 7.8337741e-39
0.016500002 0.010214286 0.82500005 8.2011189e-39
0.01807143 0.010214286 0.82500005 8.5688168e-39
0.019642858 0.010214286 0.82500005 8.6602922e-39
0.021214288 0.010214286 0.82500005 8.7524878e-39
0.022785716 0.010214286 0.82500005 8.7521305e-39
0.024298096 0.010189525 0.82300001 8.7524892e-39
0.025865717 0.010189525 0.82300001 8.7528479e-39
0.027433336 0.010189525 0.82300001 8.6606495e-39
0.028930478 0.010164763 0.82100004 8.660288e-39
0.030494288 0.010164763 0.82100004 8.5684497e-39
0.032136194 0.010189525 0.82300001 8.4769715e-39
0.033621907 0.010164763 0.82100004 8.2932991e-39
0.035185717 0.010164763 0.82100004 8.3847745e-39
0.036749527 0.010164763 0.82100004 8.4769687e-39
0.038313337 0.010164763 0.82100004 8.4769687e-39
0.039877146 0.010164763 0.82100004 8.3847745e-39
0.041440956 0.010164763 0.82100004 8.5691643e-39
0.042900003 0.010140001 0.81900007 8.6602809e-39
0.044460002 0.010140001 0.81900007 8.4755338e-39
0.046020001 0.010140001 0.81900007 8.2922159e-39
0.047580004 0.010140001 0.81900007 8.2007349e-39
0.049020004 0.010115239 0.81700003 8.107826e-39
0.050576195 0.010115239 0.81700003 8.10711e-39
0.052515242 0.010189525 0.82300001 8.0149199e-39
0.054082859 0.010189525 0.82300001 7.8312532e-39
0.05565048 0.010189525 0.82300001 7.6457829e-39
0.057218097 0.010189525 0.82300001 8.3775914e-39
0.058642861 0.010164763 0.82100004 9.0330656e-39
0.06020667 0.010164763 0.82100004 1.3829748e-38
0.061620004 0.010140001 0.81900007 1.8614898e-38
0.062871434 0.010090477 0.81500006 1.8337617e-38
0.064344764 0.010078096 0.81400001 1.8062474e-38
-0.02471143 0.011957143 0.83700001 8.9372406e-39
-0.023117144 0.011957143 0.83700001 9.121629e-39
-0.021522859 0.011957143 0.83700001 8.9383168e-39
-0.02007143 0.012042858 0.84300005 8.8454023e-39
-0.018465716 0.012042858 0.84300005 8.7532039e-39
-0.016860001 0.012042858 0.84300005 8.5691741e-39
-0.015181906 0.011985715 0.83900005 8.5695315e-39
-0.01355143 0.011957143 0.83700001 8.5695315e-39
-0.011985715 0.011985715 0.83900005 8.6606495e-39
-0.010412382 0.012014287 0.84100002 8.7521192e-39
-0.0088314293 0.012042858 0.84300005 8.8446638e-39
-0.0072257146 0.012042858 0.84300005 9.0287005e-39
-0.0056200004 0.012042858 0.84300005 9.3982019e-39
-0.0040142857 0.012042858 0.84300005 9.7633957e-39
-0.0024085715 0.012042858 0.84300005 9.3967754e-39
-0.00080285722 0.012042858 0.84300005 9.1209144e-39
0.00080095243 0.012014287 0.84100002 8.7535766e-39
0.0023914287 0.011957143 0.83700001 8.3851514e-39
0.0039761909 0.011928572 0.83500004 8.5688154e-39
0.0055533336 0.011900001 0.83300006 8.6606509e-39
0.0071400004 0.011900001 0.83300006 8.7524864e-39
0.0087266676 0.011900001 0.83300006 8.8439646e-39
0.010288572 0.011871429 0.83100003 8.9361602e-39
0.011871429 0.011871429 0.83100003 9.0279943e-39
0.013421905 0.011842858 0.82900006 8.6606495e-39
0.015000953 0.011842858 0.82900006 8.293669e-39
0.01807143 0.011785715 0.82500005 8.7528451e-39
0.019642858 0.011785715 0.82500005 8.8450351e-39
0.021214288 0.011785715 0.82500005 8.9368748e-39
0.02295143 0.011871429 0.83100003 9.1205486e-39
0.024475239 0.011842858 0.82900006 9.2120254e-39
0.026054287 0.011842858 0.82900006 9.0294306e-39
0.027633335 0.011842858 0.82900006 8.9368762e-39
0.028930478 0.011728573 0.82100004 8.9368734e-39
0.030494288 0.011728573 0.82100004 8.936872e-39
0.032136194 0.011757144 0.82300001 8.5691685e-39
0.033621907 0.011728573 0.82100004 8.2936634e-39
0.035185717 0.011728573 0.82100004 8.3851402e-39
0.036749527 0.011728573 0.82100004 8.5691685e-39
0.038313337 0.011728573 0.82100004 8.2011063e-39
0.039877146 0.011728573 0.82100004 7.9259613e-39
0.04164286 0.011785715 0.82500005 8.2940222e-39
0.043214288 0.011785715 0.82500005 8.7539143e-39
0.044785716 0.011785715 0.82500005 8.3851346e-39
0.046132386 0.011728573 0.82100004 8.1096211e-39
0.047812384 0.011757144 0.82300001 8.1088966e-39
0.049260002 0.011728573 0.82100004 8.1081834e-39
0.050823811 0.011728573 0.82100004 8.0159933e-39
0.052770481 0.011814287 0.82700002 8.0159989e-39
0.05434572 0.011814287 0.82700002 7.9238089e-39
0.055785719 0.011785715 0.82500005 7.7394163e-39
0.057357147 0.011785715 0.82500005 8.8425128e-39
0.058928575 0.011785715 0.82500005 9.8592333e-39
0.060500003 0.011785715 0.82500005 1.419674e-38
0.061920956 0.011757144 0.82300001 1.8621359e-38
0.063488573 0.011757144 0.82300001 1.8431602e-38
0.064898096 0.011728573 0.82100004 1.8247222e-38
0.066461906 0.011728573 0.82100004 1.84309e-38
-0.02007143 0.013648572 0.84300005 8.845761e-39
-0.018465716 0.013648572 0.84300005 8.7532053e-39
-0.016960001 0.013729525 0.84800005 8.5691713e-39
-0.015344763 0.013729525 0.84800005 8.5695259e-39
-0.013616191 0.013616191 0.84100002 8.5695301e-39
-0.012042858 0.013648572 0.84300005 8.7532053e-39
-0.010461905 0.013680954 0.84500003 8.8450337e-39
-0.0088523813 0.013680954 0.84500003 9.3049217e-39
-0.0072428575 0.013680954 0.84500003 9.7673572e-39
-0.0056333337 0.013680954 0.84500003 1.0323423e-38
-0.0040238099 0.013680954 0.84500003 1.0869389e-38
-0.0024142859 0.013680954 0.84500003 1.0132529e-38
-0.00080476195 0.013680954 0.84500003 9.3052972e-39
0.00080476195 0.013680954 0.84500003 8.6617383e-39
0.0024028574 0.013616191 0.84100002 8.0178052e-39
0.0039761909 0.013519049 0.83500004 8.2925872e-39
0.0055666668 0.013519049 0.83500004 8.5684539e-39
0.0071571432 0.013519049 0.83500004 8.8439631e-39
0.0087476196 0.013519049 0.83500004 9.0279971e-39
0.010338096 0.013519049 0.83500004 9.212031e-39
0.011871429 0.013454286 0.83100003 9.3953349e-39
0.02295143 0.013454286 0.83100003 9.3971313e-39
0.024475239 0.013421905 0.82900006 9.6733595e-39
0.026054287 0.013421905 0.82900006 9.3989334e-39
0.027633335 0.013421905 0.82900006 9.1223437e-39
0.04164286 0.013357144 0.82500005 8.1103624e-39
0.044157147 0.013648572 0.84300005 8.8450393e-39
0.045762859 0.013648572 0.84300005 8.3851374e-39
0.047256194 0.013616191 0.84100002 7.8337587e-39
0.048858099 0.013616191 0.84100002 7.9252284e-39
0.049860004 0.013454286 0.83100003 8.0163451e-39
0.051442862 0.013454286 0.83100003 8.0163437e-39
0.053663813 0.013616191 0.84100002 8.0163493e-39
0.054477148 0.013421905 0.82900006 7.9241606e-39
0.056056194 0.013421905 0.82900006 7.8316161e-39
0.05763524 0.013421905 0.82900006 9.3017099e-39
0.05921429 0.013421905 0.82900006 1.0692583e-38
0.060646672 0.013389525 0.82700002 1.4659512e-38
0.062221907 0.013389525 0.82700002 1.8522355e-38
0.063797146 0.013389525 0.82700002 1.842874e-38
-0.023338096 0.015290477 0.84500003 9.0297921e-39
-0.021805715 0.015344763 0.84800005 8.9383182e-39
-0.020119049 0.015290477 0.84500003 8.8454037e-39
-0.018509526 0.015290477 0.84500003 8.7528479e-39
-0.016960001 0.015344763 0.84800005 8.5688112e-39
-0.015344763 0.015344763 0.84800005 8.477326e-39
-0.013680954 0.015290477 0.84500003 8.3854989e-39
-0.012114286 0.015344763 0.84800005 8.5695357e-39
-0.010499048 0.015344763 0.84800005 8.845754e-39
-0.0088838097 0.015344763 0.84800005 9.3063594e-39
-0.0072685718 0.015344763 0.84800005 9.8606542e-39
-0.0056533339 0.015344763 0.84800005 1.0689379e-38
-0.0040380955 0.015344763 0.84800005 1.1420783e-38
-0.0024228573 0.015344763 0.84800005 1.0408746e-38
-0.00080761907 0.015344763 0.84800005 9.397846e-39
0.00080476195 0.015290477 0.84500003 8.8454051e-39
0.0024085715 0.015254287 0.84300005 8.2933075e-39
0.0040142857 0.015254287 0.84300005 8.4766114e-39
0.0055800006 0.015145715 0.83700001 8.6602866e-39
0.0071742861 0.015145715 0.83700001 8.8443205e-39
0.0087685715 0.015145715 0.83700001 9.0283586e-39
0.010362858 0.015145715 0.83700001 9.1198424e-39
0.044157147 0.015254287 0.84300005 8.9372406e-39
0.045762859 0.015254287 0.84300005 8.4766156e-39
0.047480956 0.015290477 0.84500003 8.1081918e-39
0.048858099 0.015218096 0.84100002 8.107826e-39
0.050220001 0.015145715 0.83700001 8.1071016e-39
0.052061908 0.015218096 0.84100002 8.107812e-39
0.053663813 0.015218096 0.84100002 8.1081764e-39
0.054871432 0.015109525 0.83500004 7.831958e-39
0.056191433 0.015037144 0.83100003 7.5546803e-39
0.05777429 0.015037144 0.83100003 9.4868354e-39
0.05921429 0.015000953 0.82900006 1.1429073e-38
0.060646672 0.014964763 0.82700002 1.4933231e-38
0.062221907 0.014964763 0.82700002 1.8338332e-38
0.063797146 0.014964763 0.82700002 1.8428745e-38
-0.023531429 0.017040001 0.85200006 8.8457582e-39
-0.021908572 0.017040001 0.85200006 8.8471987e-39
-0.020238096 0.017000001 0.85000002 8.8454037e-39
-0.018619049 0.017000001 0.85000002 8.7517731e-39
-0.017000001 0.017000001 0.85000002 8.5688126e-39
-0.015344763 0.016960001 0.84800005 8.3854947e-39
-0.013680954 0.016900001 0.84500003 8.2018307e-39
-0.012114286 0.016960001 0.84800005 8.4773442e-39
-0.010499048 0.016960001 0.84800005 8.7539255e-39
-0.0088838097 0.016960001 0.84800005 9.3982075e-39
-0.0072685718 0.016960001 0.84800005 9.9521226e-39
-0.0056533339 0.016960001 0.84800005 1.0968802e-38
-0.0040380955 0.016960001 0.84800005 1.1972498e-38
-0.0024228573 0.016960001 0.84800005 1.0683177e-38
-0.00080761907 0.016960001 0.84800005 9.3967684e-39
0.00080761907 0.016960001 0.84800005 9.0287159e-39
0.0024142859 0.016900001 0.84500003 8.5688126e-39
0.0040238099 0.016900001 0.84500003 8.6602795e-39
0.0056333337 0.016900001 0.84500003 8.752122e-39
0.0072428575 0.016900001 0.84500003 8.9365161e-39
0.0087685715 0.016740002 0.83700001 9.0283558e-39
0.010362858 0.016740002 0.83700001 9.0280027e-39
0.042551432 0.016860001 0.84300005 8.6610208e-39
0.044157147 0.016860001 0.84300005 9.0283544e-39
0.045762859 0.016860001 0.84300005 8.6595691e-39
0.047480956 0.016900001 0.84500003 8.2915068e-39
0.049090479 0.016900001 0.84500003 8.1989497e-39
0.050580002 0.016860001 0.84300005 8.1071114e-39
0.052185718 0.016860001 0.84300005 8.1989427e-39
0.053791434 0.016860001 0.84300005 8.1996615e-39
0.055397145 0.016860001 0.84300005 7.7401267e-39
0.057002861 0.016860001 0.84300005 7.2763123e-39
0.05777429 0.016620001 0.83100003 9.7530289e-39
0.059357148 0.016620001 0.83100003 1.2165922e-38
0.060793336 0.016580001 0.82900006 1.521413e-38
0.062372386 0.016580001 0.82900006 1.8153588e-38
0.063951433 0.016580001 0.82900006 1.8428022e-38
-0.025538096 0.01894762 0.86500007 8.8453897e-39
-0.023752382 0.018838096 0.86000001 8.8453967e-39
-0.021960001 0.018706668 0.85400003 9.1216262e-39
-0.020333335 0.018706668 0.85400003 9.3956978e-39
-0.018706668 0.018706668 0.85400003 9.0279971e-39
-0.017080002 0.018706668 0.85400003 8.6610096e-39
-0.015453334 0.018706668 0.85400003 8.4773344e-39
-0.013761906 0.018619049 0.85000002 8.3851472e-39
-0.012114286 0.01857524 0.84800005 8.5691825e-39
-0.010499048 0.01857524 0.84800005 8.6610208e-39
-0.0088838097 0.01857524 0.84800005 9.0290831e-39
-0.0072685718 0.01857524 0.84800005 9.3053182e-39
-0.0056533339 0.01857524 0.84800005 9.7670181e-39
-0.0040380955 0.01857524 0.84800005 1.0225098e-38
-0.0024228573 0.01857524 0.84800005 9.6722693e-39
-0.00080476195 0.018509526 0.84500003 9.0279915e-39
0.00080476195 0.018509526 0.84500003 8.6606551e-39
0.0024142859 0.018509526 0.84500003 8.3844213e-39
0.0040142857 0.018465716 0.84300005 8.5684412e-39
0.0056200004 0.018465716 0.84300005 8.7517619e-39
0.0072085718 0.018421905 0.84100002 8.844682e-39
0.0088104764 0.018421905 0.84100002 8.9372364e-39
0.039433338 0.018509526 0.84500003 8.2915082e-39
0.041042861 0.018509526 0.84500003 8.3833493e-39
0.042652383 0.018509526 0.84500003 9.0283558e-39
0.044261906 0.018509526 0.84500003 9.5793646e-39
0.045871433 0.018509526 0.84500003 8.9350756e-39
0.047480956 0.018509526 0.84500003 8.2907922e-39
0.049090479 0.018509526 0.84500003 8.199314e-39
0.050580002 0.018465716 0.84300005 8.1071198e-39
0.052309528 0.018509526 0.84500003 8.1996727e-39
0.053791434 0.018465716 0.84300005 8.2925816e-39
0.055397145 0.018465716 0.84300005 7.8294539e-39
0.056867622 0.018421905 0.84100002 7.2712999e-39
0.058469526 0.018421905 0.84100002 1.0408806e-38
0.060071431 0.018421905 0.84100002 1.3553511e-38
0.061673336 0.018421905 0.84100002 1.5855196e-38
-0.025538096 0.020595239 0.86500007 8.845754e-39
-0.023752382 0.020476192 0.86000001 8.8461254e-39
-0.022114288 0.020476192 0.86000001 9.3975083e-39
-0.020476192 0.020476192 0.86000001 9.8556011e-39
-0.018838096 0.020476192 0.86000001 9.3038623e-39
-0.017080002 0.020333335 0.85400003 8.6613684e-39
-0.015453334 0.020333335 0.85400003 8.6613642e-39
-0.013794286 0.020285716 0.85200006 8.5695315e-39
-0.012142858 0.020238096 0.85000002 8.5688154e-39
-0.010499048 0.020190477 0.84800005 8.5691811e-39
-0.0088838097 0.020190477 0.84800005 8.6599488e-39
-0.0072685718 0.020190477 0.84800005 8.6606691e-39
-0.0056666671 0.020238096 0.85000002 8.5684791e-39
-0.0040476192 0.020238096 0.85000002 8.4777002e-39
-0.0024228573 0.020190477 0.84800005 8.5684412e-39
-0.00080761907 0.020190477 0.84800005 8.6602837e-39
0.00081142865 0.020285716 0.85200006 8.3844255e-39
0.0024228573 0.020190477 0.84800005 8.1096337e-39
0.0040238099 0.020119049 0.84500003 8.4766128e-39
0.0056200004 0.02007143 0.84300005 8.7521249e-39
0.0073028575 0.020285716 0.85200006 8.8443247e-39
0.0089257145 0.020285716 0.85200006 8.8450436e-39
0.039433338 0.020119049 0.84500003 8.3833465e-39
0.041042861 0.020119049 0.84500003 8.4762596e-39
0.042652383 0.020119049 0.84500003 9.3060091e-39
0.044261906 0.020119049 0.84500003 1.0130375e-38
0.046034288 0.020190477 0.84800005 9.2102247e-39
0.047480956 0.020119049 0.84500003 8.2915096e-39
0.049090479 0.020119049 0.84500003 8.1996727e-39
0.050700005 0.020119049 0.84500003 8.1078386e-39
0.052309528 0.020119049 0.84500003 8.291511e-39
0.053919051 0.020119049 0.84500003 8.3833395e-39
0.055397145 0.02007143 0.84300005 7.8298084e-39
0.057002861 0.02007143 0.84300005 7.2791976e-39
0.059095241 0.020238096 0.85000002 1.1148529e-38
0.06071429 0.020238096 0.85000002 1.4929975e-38
0.061673336 0.020023812 0.84100002 1.6590237e-38
-0.025449526 0.022165716 0.86200005 8.8457596e-39
-0.023697145 0.022062859 0.85800004 8.7543011e-39
-0.022114288 0.022114288 0.86000001 9.0298244e-39
-0.020428572 0.022062859 0.85800004 9.3971495e-39
-0.018794287 0.022062859 0.85800004 9.1212661e-39
-0.015489525 0.022011431 0.85600007 8.7535584e-39
-0.013826667 0.021960001 0.85400003 8.8457512e-39
-0.01217143 0.021908572 0.85200006 8.9375839e-39
-0.010548572 0.021908572 0.85200006 9.0297907e-39
-0.0088838097 0.021805715 0.84800005 9.12092e-39
-0.0056666671 0.021857144 0.85000002 9.1205528e-39
-0.0040476192 0.021857144 0.85000002 9.1205374e-39
-0.0024514287 0.022062859 0.85800004 9.120522e-39
-0.00081523816 0.022011431 0.85600007 9.2116485e-39
0.00081714289 0.022062859 0.85800004 8.9368678e-39
0.0024285717 0.021857144 0.85000002 8.7535584e-39
0.0040666671 0.021960001 0.85400003 8.9368734e-39
0.0056800004 0.021908572 0.85200006 9.0279943e-39
0.0073200003 0.021960001 0.85400003 9.0276369e-39
0.0089676194 0.022011431 0.85600007 9.0283572e-39
0.010622858 0.022062859 0.85800004 9.0283586e-39
0.012257144 0.022062859 0.85800004 9.1201941e-39
0.041188575 0.021805715 0.84800005 8.5673763e-39
0.042803813 0.021805715 0.84800005 9.0294194e-39
0.04441905 0.021805715 0.84800005 9.486806e-39
0.046034288 0.021805715 0.84800005 8.9350784e-39
0.047649525 0.021805715 0.84800005 8.2918684e-39
0.049264766 0.021805715 0.84800005 8.2922243e-39
0.050700005 0.021728573 0.84500003 8.2925858e-39
0.052309528 0.021728573 0.84500003 8.2922299e-39
0.053919051 0.021728573 0.84500003 8.3844143e-39
0.055528574 0.021728573 0.84500003 7.8294455e-39
0.057476193 0.021857144 0.85000002 7.3663752e-39
0.059095241 0.021857144 0.85000002 1.1611309e-38
0.06071429 0.021857144 0.85000002 1.5948064e-38
-0.025449526 0.023807621 0.86200005 8.7539255e-39
-0.023697145 0.023697145 0.85800004 8.5699e-39
-0.022165716 0.023807621 0.86200005 8.7532165e-39
-0.020523811 0.023807621 0.86200005 8.937242e-39
-0.018794287 0.023697145 0.85800004 8.9375951e-39
-0.015489525 0.023641907 0.85600007 8.9368678e-39
-0.013826667 0.023586668 0.85400003 9.0290677e-39
-0.01217143 0.023531429 0.85200006 9.2134617e-39
-0.010548572 0.023531429 0.85200006 9.3978544e-39
-0.0024514287 0.023697145 0.85800004 9.6726238e-39
-0.00081523816 0.023641907 0.85600007 9.6729867e-39
0.00081714289 0.023697145 0.85800004 9.5807981e-39
0.0024400002 0.023586668 0.85400003 9.3978446e-39
0.0040666671 0.023586668 0.85400003 9.3971271e-39
0.0056933337 0.023586668 0.85400003 9.3049357e-39
0.0073371432 0.023641907 0.85600007 9.2102317e-39
0.0089676194 0.023641907 0.85600007 9.1201927e-39
0.010622858 0.023697145 0.85800004 9.2120324e-39
0.012257144 0.023697145 0.85800004 9.2127485e-39
0.015561906 0.023752382 0.86000001 9.2138233e-39
0.017200001 0.023752382 0.86000001 9.397853e-39
0.018881906 0.023807621 0.86200005 9.4896871e-39
0.020523811 0.023807621 0.86200005 9.3974929e-39
0.022165716 0.023807621 0.86200005 9.2134617e-39
0.023807621 0.023807621 0.86200005 9.12055e-39
0.025390478 0.023752382 0.86000001 8.9372392e-39
0.027028574 0.023752382 0.86000001 8.7528535e-39
0.041285716 0.023476193 0.85000002 8.6603006e-39
0.042803813 0.023420954 0.84800005 8.7571667e-39
0.04441905 0.023420954 0.84800005 8.8454065e-39
0.046034288 0.023420954 0.84800005 8.5673805e-39
0.047649525 0.023420954 0.84800005 8.2922257e-39
0.049264766 0.023420954 0.84800005 8.3844129e-39
0.050700005 0.023338096 0.84500003 8.3844171e-39
0.052309528 0.023338096 0.84500003 8.3844213e-39
0.054110479 0.023420954 0.84800005 8.3833381e-39
0.05572572 0.023420954 0.84800005 7.9205663e-39
0.057476193 0.023476193 0.85000002 7.3742785e-39
0.059234291 0.023531429 0.85200006 1.2165929e-38
0.060857147 0.023531429 0.85200006 1.6956114e-38
-0.025449526 0.025449526 0.86200005 8.7539255e-39
-0.023697145 0.02533143 0.85800004 8.6613642e-39
-0.022165716 0.025449526 0.86200005 8.7528325e-39
-0.020523811 0.025449526 0.86200005 8.8446764e-39
-0.0024514287 0.02533143 0.85800004 1.0318712e-38
-0.00081904768 0.025390478 0.86000001 1.0319074e-38
0.00081904768 0.025390478 0.86000001 1.0226522e-38
0.0024514287 0.02533143 0.85800004 1.0135401e-38
0.0040857145 0.02533143 0.85800004 1.0042845e-38
0.0057200002 0.02533143 0.85800004 9.952089e-39
0.0073714289 0.025390478 0.86000001 1.0041773e-38
0.0090304771 0.025449526 0.86200005 1.0132178e-38
0.010672382 0.025449526 0.86200005 9.8570347e-39
0.012314286 0.025449526 0.86200005 9.6733623e-39
0.014004763 0.025538096 0.86500007 9.6737182e-39
0.015652383 0.025538096 0.86500007 9.6737224e-39
0.017340001 0.025597144 0.86700004 9.8581137e-39
0.018991429 0.025597144 0.86700004 1.0133617e-38
0.020642858 0.025597144 0.86700004 9.8581067e-39
0.022242859 0.025538096 0.86500007 9.4907633e-39
0.023807621 0.025449526 0.86200005 9.3982075e-39
0.025449526 0.025449526 0.86200005 9.3060175e-39
0.027091431 0.025449526 0.86200005 9.1219906e-39
0.028733335 0.025449526 0.86200005 9.0290761e-39
0.030304763 0.025390478 0.86000001 9.0287145e-39
0.031942859 0.025390478 0.86000001 8.936156e-39
0.041285716 0.025095239 0.85000002 8.7510725e-39
0.042803813 0.025036192 0.84800005 8.7536046e-39
0.04441905 0.025036192 0.84800005 8.7539437e-39
0.046034288 0.025036192 0.84800005 8.5684581e-39
0.047649525 0.025036192 0.84800005 8.3837011e-39
0.049264766 0.025036192 0.84800005 8.3844073e-39
0.050700005 0.024947621 0.84500003 8.3847717e-39
0.052495241 0.025036192 0.84800005 8.4766128e-39
0.054110479 0.025036192 0.84800005 8.5688028e-39
0.05572572 0.025036192 0.84800005 8.1978679e-39
0.057611432 0.025154287 0.85200006 7.7380444e-39
0.059373338 0.025213335 0.85400003 1.2627637e-38
0.061000004 0.025213335 0.85400003 1.7422837e-38
-0.00081904768 0.027028574 0.86000001 1.0962285e-38
0.00082095241 0.027091431 0.86200005 1.0870101e-38
0.0024628574 0.027091431 0.86200005 1.0778264e-38
0.0041047623 0.027091431 0.86200005 1.0687144e-38
0.0057466673 0.027091431 0.86200005 1.0503117e-38
0.0073885717 0.027091431 0.86200005 1.0781138e-38
0.0090619056 0.027185716 0.86500007 1.1053417e-38
0.010709524 0.027185716 0.86500007 1.0594601e-38
0.012357144 0.027185716 0.86500007 1.0134706e-38
0.014004763 0.027185716 0.86500007 1.0135424e-38
0.015688572 0.027248573 0.86700004 1.0042868e-38
0.017380001 0.027311431 0.86900002 1.0410926e-38
0.019035239 0.027311431 0.86900002 1.0777906e-38
0.020690478 0.027311431 0.86900002 1.0318007e-38
0.022345716 0.027311431 0.86900002 9.7666341e-39
0.023945715 0.027248573 0.86700004 9.6747958e-39
0.025597144 0.027248573 0.86700004 9.5826128e-39
0.027248573 0.027248573 0.86700004 9.5829813e-39
0.028900001 0.027248573 0.86700004 9.4900584e-39
0.030480955 0.027185716 0.86500007 9.4896885e-39
0.032017145 0.027091431 0.86200005 9.3978488e-39
0.033659048 0.027091431 0.86200005 9.1216206e-39
0.044523813 0.026714288 0.85000002 8.5688266e-39
0.046142861 0.026714288 0.85000002 8.4766198e-39
0.047649525 0.026651431 0.84800005 8.3844199e-39
0.049264766 0.026651431 0.84800005 8.3847731e-39
0.050700005 0.026557144 0.84500003 8.3847787e-39
0.052309528 0.026557144 0.84500003 8.5680965e-39
0.054110479 0.026651431 0.84800005 8.7506899e-39
0.05572572 0.026651431 0.84800005 8.4719534e-39
0.057746671 0.026840001 0.85400003 8.1143589e-39
0.059512384 0.026902858 0.85600007 1.3000357e-38
0.061142862 0.026902858 0.85600007 1.7877706e-38
0.00082095241 0.028733335 0.86200005 1.0593529e-38
0.002477143 0.028900001 0.86700004 1.0318383e-38
0.0041285716 0.028900001 0.86700004 1.00418e-38
0.0057800002 0.028900001 0.86700004 9.7659391e-39
0.0074314289 0.028900001 0.86700004 9.7663006e-39
0.0090828575 0.028900001 0.86700004 9.7663006e-39
0.010734286 0.028900001 0.86700004 9.5822695e-39
0.012385715 0.028900001 0.86700004 9.4918717e-39
0.014037143 0.028900001 0.86700004 9.3993202e-39
0.015724763 0.028966669 0.86900002 9.3078364e-39
0.017380001 0.028966669 0.86900002 9.5836946e-39
0.019079048 0.029033335 0.87100005 9.8617094e-39
0.020738097 0.029033335 0.87100005 9.5833289e-39
0.022397144 0.029033335 0.87100005 9.307821e-39
0.024000954 0.028966669 0.86900002 9.2145477e-39
0.025656192 0.028966669 0.86900002 9.2156422e-39
0.027311431 0.028966669 0.86900002 9.490448e-39
0.028966669 0.028966669 0.86900002 9.7670111e-39
0.030621907 0.028966669 0.86900002 9.6747972e-39
0.032202858 0.028900001 0.86700004 9.6765895e-39
0.033932384 0.028966669 0.86900002 9.0308683e-39
0.03558762 0.028966669 0.86900002 8.4784176e-39
0.044523813 0.028333336 0.85000002 8.2922327e-39
0.046142861 0.028333336 0.85000002 8.2925858e-39
0.047649525 0.028266668 0.84800005 8.3844213e-39
0.049264766 0.028266668 0.84800005 8.3844213e-39
0.050580002 0.028100003 0.84300005 8.4762624e-39
0.052185718 0.028100003 0.84300005 8.4759079e-39
0.054110479 0.028266668 0.84800005 8.4748345e-39
0.05572572 0.028266668 0.84800005 8.8439716e-39
0.057746671 0.028466668 0.85400003 9.2160317e-39
0.059512384 0.028533336 0.85600007 1.3643562e-38
0.061142862 0.028533336 0.85600007 1.7975637e-38
0.002477143 0.03055143 0.86700004 9.859927e-39
0.0041809524 0.03093905 0.87800002 9.4879172e-39
0.0058533335 0.03093905 0.87800002 9.0319656e-39
0.0074657146 0.030692384 0.87100005 8.751434e-39
0.0091247624 0.030692384 0.87100005 8.3891129e-39
0.01078381 0.030692384 0.87100005 8.5684777e-39
0.012442858 0.030692384 0.87100005 8.7557444e-39
0.014101906 0.030692384 0.87100005 8.6614076e-39
0.015797144 0.030762859 0.87300003 8.5706371e-39
0.017460002 0.030762859 0.87300003 8.7535794e-39
0.019122858 0.030762859 0.87300003 8.8468456e-39
0.020738097 0.030692384 0.87100005 8.8454065e-39
0.022397144 0.030692384 0.87100005 8.7535696e-39
0.024056192 0.030692384 0.87100005 8.8439702e-39
0.025715239 0.030692384 0.87100005 8.8454177e-39
0.027374288 0.030692384 0.87100005 9.3964433e-39
0.029033335 0.030692384 0.87100005 9.9492359e-39
0.030692384 0.030692384 0.87100005 9.9495806e-39
0.032351431 0.030692384 0.87100005 9.9495792e-39
0.034010477 0.030692384 0.87100005 9.0305068e-39
0.035669528 0.030692384 0.87100005 8.1107127e-39
0.050580002 0.029705716 0.84300005 8.4762638e-39
0.052185718 0.029705716 0.84300005 8.3837193e-39
0.057746671 0.030093335 0.85400003 1.0325957e-38
0.059512384 0.030163812 0.85600007 1.4198531e-38
0.061142862 0.030163812 0.85600007 1.8061737e-38
0.0041809524 0.03261143 0.87800002 1.1701296e-38
0.0058533335 0.03261143 0.87800002 1.1245337e-38
0.0075257146 0.03261143 0.87800002 1.133537e-38
0.0091666672 0.032500003 0.87500006 1.1337521e-38
0.010870477 0.03261143 0.87800002 1.1611231e-38
0.012542858 0.03261143 0.87800002 1.1790972e-38
0.01424762 0.032685716 0.88000005 1.1514046e-38
0.015923811 0.032685716 0.88000005 1.1233145e-38
0.017460002 0.032425717 0.87300003 1.1328911e-38
0.019122858 0.032425717 0.87300003 1.1416077e-38
0.020785715 0.032425717 0.87300003 1.1236706e-38
0.022448573 0.032425717 0.87300003 1.1047296e-38
0.024111429 0.032425717 0.87300003 1.0866855e-38
0.025774287 0.032425717 0.87300003 1.068068e-38
0.027500002 0.032500003 0.87500006 1.0684992e-38
0.029100003 0.032425717 0.87300003 1.0775027e-38
0.030762859 0.032425717 0.87300003 1.0593858e-38
0.032425717 0.032425717 0.87300003 1.0498794e-38
0.034088574 0.032425717 0.87300003 9.2127387e-39
0.035751432 0.032425717 0.87300003 8.0174395e-39
0.0025200001 0.034440003 0.88200003 1.4369925e-38
0.0042000003 0.034440003 0.88200003 1.3908949e-38
0.0058666673 0.034361906 0.88000005 1.3451208e-38
0.0075428574 0.034361906 0.88000005 1.3914692e-38
0.0092190485 0.034361906 0.88000005 1.4282034e-38
0.010895239 0.034361906 0.88000005 1.4564358e-38
0.01257143 0.034361906 0.88000005 1.4830902e-38
0.01424762 0.034361906 0.88000005 1.4370295e-38
0.015923811 0.034361906 0.88000005 1.3908242e-38
0.017500002 0.034166668 0.87500006 1.3912541e-38
0.019166667 0.034166668 0.87500006 1.3908955e-38
0.020833334 0.034166668 0.87500006 1.3637396e-38
0.022500001 0.034166668 0.87500006 1.326395e-38
0.024166668 0.034166668 0.87500006 1.2895885e-38
0.025833335 0.034166668 0.87500006 1.2436707e-38
0.027594287 0.034283813 0.87800002 1.1980042e-38
0.029266668 0.034283813 0.87800002 1.1517992e-38
0.03093905 0.034283813 0.87800002 1.1336112e-38
0.03261143 0.034283813 0.87800002 1.105628e-38
0.034166668 0.034166668 0.87500006 9.4871648e-39
0.035833336 0.034166668 0.87500006 7.8330454e-39
0.00084190484 0.036201905 0.88400006 1.3636328e-38
0.0025200001 0.036120001 0.88200003 1.3912551e-38
0.0042000003 0.036120001 0.88200003 1.3265755e-38
0.0058666673 0.036038097 0.88000005 1.2622919e-38
0.0075428574 0.036038097 0.88000005 1.3269009e-38
0.0092190485 0.036038097 0.88000005 1.4005132e-38
0.01092 0.036120001 0.88200003 1.4191675e-38
0.012600001 0.036120001 0.88200003 1.4373549e-38
0.014312382 0.036201905 0.88400006 1.3912573e-38
0.015996192 0.036201905 0.88400006 1.3454116e-38
0.017680001 0.036201905 0.88400006 1.3729625e-38
0.019276192 0.036038097 0.88000005 1.4098769e-38
0.020952383 0.036038097 0.88000005 1.3822913e-38
0.022577144 0.035956193 0.87800002 1.3547035e-38
0.024249526 0.035956193 0.87800002 1.3177169e-38
0.025921907 0.035956193 0.87800002 1.2903809e-38
0.027594287 0.035956193 0.87800002 1.2625786e-38
0.029333334 0.036038097 0.88000005 1.2348489e-38
0.031009525 0.036038097 0.88000005 1.2809821e-38
0.032685716 0.036038097 0.88000005 1.3270034e-38
0.034361906 0.036038097 0.88000005 1.0502372e-38
0.036038097 0.036038097 0.88000005 7.8308874e-39
-0.011031429 0.038185716 0.89100003 1.4648329e-38
-0.0093657151 0.038314287 0.89400005 1.4368521e-38
-0.0076371431 0.038185716 0.89100003 1.4004402e-38
-0.0059600002 0.038314287 0.89400005 1.4466443e-38
-0.0042428575 0.038185716 0.89100003 1.4834511e-38
-0.0025457144 0.038185716 0.89100003 1.3728548e-38
-0.00084666675 0.038100004 0.88900006 1.2625797e-38
0.00084476196 0.038014289 0.88700002 1.2993132e-38
0.0025257145 0.037885718 0.88400006 1.3359028e-38
0.004209524 0.037885718 0.88400006 1.2526756e-38
0.0058800005 0.037800003 0.88200003 1.1703486e-38
0.0075600003 0.037800003 0.88200003 1.2716568e-38
0.0092400005 0.037800003 0.88200003 1.3637075e-38
0.010944762 0.037885718 0.88400006 1.3823615e-38
0.01267143 0.038014289 0.88700002 1.3913289e-38
0.014360953 0.038014289 0.88700002 1.3451592e-38
0.016050477 0.038014289 0.88700002 1.2900583e-38
0.017740002 0.038014289 0.88700002 1.3544514e-38
