# .PCD v0.7 - Point Cloud Data file format
VERSION 0.7
FIELDS x y z rgb
SIZE 4 4 4 4
TYPE F F F F
COUNT 1 1 1 1
WIDTH 954
HEIGHT 1
VIEWPOINT 0 0 0 1 0 0 0
POINTS 954
DATA ascii
0.008600953 -0.028930478 0.82100004 7.5539376e-39
0.010164763 -0.028930478 0.82100004 7.5539544e-39
0.011728573 -0.028930478 0.82100004 7.6454256e-39
0.013324763 -0.029000955 0.82300001 7.6447025e-39
0.014892382 -0.029000955 0.82300001 7.5532215e-39
0.016460001 -0.029000955 0.82300001 7.5532173e-39
0.017983811 -0.028930478 0.82100004 7.645413e-39
0.019547621 -0.028930478 0.82100004 7.645413e-39
0.021111431 -0.028930478 0.82100004 7.7372456e-39
0.02267524 -0.028930478 0.82100004 7.7372428e-39
0.024239048 -0.028930478 0.82100004 7.7376016e-39
0.025802858 -0.028930478 0.82100004 7.7376016e-39
0.027366668 -0.028930478 0.82100004 7.737247e-39
0.028930478 -0.028930478 0.82100004 7.8294441e-39
0.030494288 -0.028930478 0.82100004 7.9212796e-39
0.032058097 -0.028930478 0.82100004 7.9216383e-39
0.033540003 -0.028860003 0.81900007 7.92236e-39
0.035100002 -0.028860003 0.81900007 7.9230802e-39
0.036660001 -0.028860003 0.81900007 7.8316021e-39
0.038220003 -0.028860003 0.81900007 8.2922131e-39
0.039780002 -0.028860003 0.81900007 8.7528241e-39
0.041340001 -0.028860003 0.81900007 8.6606271e-39
0.042900003 -0.028860003 0.81900007 8.5691587e-39
0.044460002 -0.028860003 0.81900007 8.7531954e-39
0.046020001 -0.028860003 0.81900007 8.9368734e-39
0.047580004 -0.028860003 0.81900007 9.0297921e-39
0.049140003 -0.028860003 0.81900007 9.1230626e-39
0.050700005 -0.028860003 0.81900007 9.3070923e-39
0.052260004 -0.028860003 0.81900007 9.5829533e-39
0.053820003 -0.028860003 0.81900007 9.4900374e-39
0.055380005 -0.028860003 0.81900007 9.3967936e-39
0.056940004 -0.028860003 0.81900007 1.1519081e-38
0.058500003 -0.028860003 0.81900007 1.364639e-38
0.059913337 -0.028789526 0.81700003 1.3274409e-38
0.061469529 -0.028789526 0.81700003 1.2904887e-38
0.06302572 -0.028789526 0.81700003 1.1979329e-38
0.064740002 -0.028860003 0.81900007 1.1151016e-38
0.066138096 -0.028789526 0.81700003 1.1427958e-38
0.067694291 -0.028789526 0.81700003 1.179639e-38
0.069420002 -0.028860003 0.81900007 1.207155e-38
0.071153335 -0.028930478 0.82100004 1.2438511e-38
0.072717145 -0.028930478 0.82100004 1.2162623e-38
0.074280955 -0.028930478 0.82100004 1.1980379e-38
0.075844765 -0.028930478 0.82100004 1.2623576e-38
0.077408575 -0.028930478 0.82100004 1.3360799e-38
0.078972384 -0.028930478 0.82100004 1.3084602e-38
0.080536194 -0.028930478 0.82100004 1.2900207e-38
0.082100004 -0.028930478 0.82100004 1.2714733e-38
0.083460003 -0.028860003 0.81900007 1.2438501e-38
0.085020006 -0.028860003 0.81900007 1.2438491e-38
0.086791433 -0.028930478 0.82100004 1.2439203e-38
0.088355243 -0.028930478 0.82100004 1.0776473e-38
0.0901381 -0.029000955 0.82300001 9.2077318e-39
0.091705717 -0.029000955 0.82300001 1.0770007e-38
0.093273342 -0.029000955 0.82300001 1.2340933e-38
0.094840959 -0.029000955 0.82300001 1.5846502e-38
0.096408576 -0.029000955 0.82300001 1.9435969e-38
0.097738102 -0.028930478 0.82100004 1.91583e-38
0.099543817 -0.029000955 0.82300001 1.8881007e-38
0.10111143 -0.029000955 0.82300001 1.9065044e-38
-0.05833048 -0.027966669 0.83900005 9.304207e-39
-0.056597147 -0.027900001 0.83700001 8.9339938e-39
-0.055134289 -0.027966669 0.83900005 8.5713181e-39
-0.053663813 -0.028033335 0.84100002 8.4726695e-39
-0.052061908 -0.028033335 0.84100002 8.2947438e-39
-0.050460003 -0.028033335 0.84100002 8.2879335e-39
-0.048858099 -0.028033335 0.84100002 8.2943893e-39
-0.047256194 -0.028033335 0.84100002 8.1064135e-39
-0.045654289 -0.028033335 0.84100002 7.9259697e-39
-0.044157147 -0.028100003 0.84300005 8.0142165e-39
-0.04245048 -0.028033335 0.84100002 8.0178038e-39
-0.040848576 -0.028033335 0.84100002 7.9241747e-39
-0.039246671 -0.028033335 0.84100002 7.8330552e-39
-0.03755524 -0.027966669 0.83900005 7.9234544e-39
-0.035957146 -0.027966669 0.83900005 8.0160031e-39
-0.034277145 -0.027900001 0.83700001 8.0156416e-39
-0.032682858 -0.027900001 0.83700001 8.0170709e-39
-0.031088574 -0.027900001 0.83700001 8.1074645e-39
-0.029494287 -0.027900001 0.83700001 8.1067428e-39
-0.027833335 -0.027833335 0.83500004 8.1074561e-39
-0.026180001 -0.027766669 0.83300006 8.014543e-39
-0.024593335 -0.027766669 0.83300006 8.2896908e-39
-0.023006668 -0.027766669 0.83300006 8.4740806e-39
-0.021420002 -0.027766669 0.83300006 8.382964e-39
-0.019833334 -0.027766669 0.83300006 8.2900509e-39
-0.018202858 -0.027700001 0.83100003 8.1992916e-39
-0.016620001 -0.027700001 0.83100003 8.1063729e-39
-0.015037144 -0.027700001 0.83100003 7.8297846e-39
-0.013454286 -0.027700001 0.83100003 7.5539264e-39
-0.011842858 -0.027633335 0.82900006 7.7376044e-39
-0.01026381 -0.027633335 0.82900006 7.9216313e-39
-0.0086638099 -0.027566668 0.82700002 7.6464821e-39
-0.0070885718 -0.027566668 0.82700002 7.3706239e-39
-0.0055133337 -0.027566668 0.82700002 7.6468549e-39
-0.0039380956 -0.027566668 0.82700002 7.9216411e-39
-0.0023628573 -0.027566668 0.82700002 7.8294441e-39
-0.00078761909 -0.027566668 0.82700002 7.7376002e-39
0.00078571436 -0.027500002 0.82500005 7.5542795e-39
0.002357143 -0.027500002 0.82500005 7.2791374e-39
0.0039380956 -0.027566668 0.82700002 7.5542921e-39
0.0054866672 -0.027433336 0.82300001 7.737603e-39
0.0070542861 -0.027433336 0.82300001 7.8290783e-39
0.008621905 -0.027433336 0.82300001 7.8290882e-39
0.010214286 -0.027500002 0.82500005 7.7372625e-39
0.011785715 -0.027500002 0.82500005 7.6454242e-39
0.013357144 -0.027500002 0.82500005 7.7368967e-39
0.014928573 -0.027500002 0.82500005 7.7372527e-39
0.01654 -0.027566668 0.82700002 7.7372499e-39
0.018115239 -0.027566668 0.82700002 7.6454144e-39
0.019690478 -0.027566668 0.82700002 7.6454144e-39
0.021265715 -0.027566668 0.82700002 7.646129e-39
0.022896191 -0.027633335 0.82900006 7.7383218e-39
0.024475239 -0.027633335 0.82900006 7.7383218e-39
0.025991431 -0.027566668 0.82700002 7.6454116e-39
0.027566668 -0.027566668 0.82700002 7.5542977e-39
0.02907143 -0.027500002 0.82500005 7.8301672e-39
0.03064286 -0.027500002 0.82500005 8.0138367e-39
0.032214288 -0.027500002 0.82500005 8.013478e-39
0.033703811 -0.027433336 0.82300001 7.9227187e-39
0.035271432 -0.027433336 0.82300001 8.0141969e-39
0.036749527 -0.027366668 0.82100004 8.0156304e-39
0.038313337 -0.027366668 0.82100004 8.4762428e-39
0.039877146 -0.027366668 0.82100004 8.9354217e-39
0.041440956 -0.027366668 0.82100004 8.7517521e-39
0.043004766 -0.027366668 0.82100004 8.5688042e-39
0.044568576 -0.027366668 0.82100004 8.6617215e-39
0.046132386 -0.027366668 0.82100004 8.7539199e-39
0.047696192 -0.027366668 0.82100004 8.9379538e-39
0.049380004 -0.027433336 0.82300001 9.0305082e-39
0.050823811 -0.027366668 0.82100004 9.3070923e-39
0.052387621 -0.027366668 0.82100004 9.582603e-39
0.053951431 -0.027366668 0.82100004 9.7659208e-39
0.05565048 -0.027433336 0.82300001 9.8595556e-39
0.057079051 -0.027366668 0.82100004 1.1703087e-38
0.058642861 -0.027366668 0.82100004 1.345264e-38
0.06020667 -0.027366668 0.82100004 1.3271495e-38
0.06177048 -0.027366668 0.82100004 1.2992029e-38
0.063334286 -0.027366668 0.82100004 1.2345224e-38
0.064898096 -0.027366668 0.82100004 1.1702381e-38
0.066300005 -0.027300002 0.81900007 1.1798527e-38
0.068025716 -0.027366668 0.82100004 1.1888214e-38
0.069589525 -0.027366668 0.82100004 1.2533938e-38
0.071500003 -0.027500002 0.82500005 1.3081355e-38
0.073071435 -0.027500002 0.82500005 1.271257e-38
0.074642859 -0.027500002 0.82500005 1.2345219e-38
0.076214291 -0.027500002 0.82500005 1.3177472e-38
0.077597149 -0.027433336 0.82300001 1.3911449e-38
0.079164766 -0.027433336 0.82300001 1.3453001e-38
0.080732383 -0.027433336 0.82300001 1.299059e-38
0.082300007 -0.027433336 0.82300001 1.2805839e-38
0.083663814 -0.027366668 0.82100004 1.2621441e-38
0.085435241 -0.027433336 0.82300001 1.2713626e-38
0.087002866 -0.027433336 0.82300001 1.2802599e-38
0.088570483 -0.027433336 0.82300001 1.0775409e-38
0.090357147 -0.027500002 0.82500005 8.6541965e-39
0.091928579 -0.027500002 0.82500005 1.1224845e-38
0.093500003 -0.027500002 0.82500005 1.3816385e-38
0.095071435 -0.027500002 0.82500005 1.6585139e-38
0.096642867 -0.027500002 0.82500005 1.9341987e-38
0.0979762 -0.027433336 0.82300001 1.9157587e-38
-0.058956195 -0.026651431 0.84800005 9.5815044e-39
-0.0571381 -0.026557144 0.84500003 1.1241725e-38
-0.055528574 -0.026557144 0.84500003 1.2902301e-38
-0.053791434 -0.026494287 0.84300005 1.2715406e-38
-0.052185718 -0.026494287 0.84300005 1.2532106e-38
-0.050580002 -0.026494287 0.84300005 1.243813e-38
-0.04897429 -0.026494287 0.84300005 1.2345563e-38
-0.047480956 -0.026557144 0.84500003 1.2160443e-38
-0.045871433 -0.026557144 0.84500003 1.1972464e-38
-0.044261906 -0.026557144 0.84500003 1.1790224e-38
-0.042803813 -0.026651431 0.84800005 1.1694801e-38
-0.041042861 -0.026557144 0.84500003 1.1420371e-38
-0.039433338 -0.026557144 0.84500003 1.1229884e-38
-0.037734289 -0.026494287 0.84300005 1.1141995e-38
-0.036042858 -0.02643143 0.84100002 1.1043339e-38
-0.034440953 -0.02643143 0.84100002 1.0774284e-38
-0.032760955 -0.026368573 0.83900005 1.0589171e-38
-0.03116286 -0.026368573 0.83900005 1.0220744e-38
-0.029564764 -0.026368573 0.83900005 9.9394955e-39
-0.027900001 -0.026305716 0.83700001 9.6657799e-39
-0.02624286 -0.02624286 0.83500004 9.2966414e-39
-0.024652382 -0.02624286 0.83500004 8.9310889e-39
-0.023061907 -0.02624286 0.83500004 8.6552265e-39
-0.02147143 -0.02624286 0.83500004 8.3790053e-39
-0.019880954 -0.02624286 0.83500004 8.1946183e-39
-0.018290477 -0.02624286 0.83500004 7.9201894e-39
-0.016700001 -0.02624286 0.83500004 7.737582e-39
-0.015109525 -0.02624286 0.83500004 7.5521033e-39
-0.013486668 -0.026180001 0.83300006 7.3691624e-39
-0.011900001 -0.026180001 0.83300006 7.4599343e-39
-0.01026381 -0.026054287 0.82900006 7.6453975e-39
-0.0086847628 -0.026054287 0.82900006 7.3684547e-39
-0.0071057146 -0.026054287 0.82900006 7.1858725e-39
-0.0055133337 -0.025991431 0.82700002 7.3688387e-39
-0.0039476193 -0.026054287 0.82900006 7.4617504e-39
-0.0023628573 -0.025991431 0.82700002 7.3681198e-39
-0.00078761909 -0.025991431 0.82700002 7.1851537e-39
0.00078761909 -0.025991431 0.82700002 7.0929454e-39
0.0023628573 -0.025991431 0.82700002 7.0036309e-39
0.0039380956 -0.025991431 0.82700002 7.0933238e-39
0.0055133337 -0.025991431 0.82700002 7.2780738e-39
0.0070714289 -0.025928574 0.82500005 7.3691932e-39
0.0086428579 -0.025928574 0.82500005 7.461749e-39
0.010239048 -0.025991431 0.82700002 7.3688401e-39
0.011814287 -0.025991431 0.82700002 7.3699149e-39
0.013389525 -0.025991431 0.82700002 7.5535845e-39
0.014964763 -0.025991431 0.82700002 7.7372541e-39
0.01654 -0.025991431 0.82700002 7.6454158e-39
0.018115239 -0.025991431 0.82700002 7.6457745e-39
0.019738097 -0.026054287 0.82900006 7.5542963e-39
0.021317145 -0.026054287 0.82900006 7.4631769e-39
0.022896191 -0.026054287 0.82900006 7.4628168e-39
0.024475239 -0.026054287 0.82900006 7.55609e-39
0.026054287 -0.026054287 0.82900006 7.5542977e-39
0.027633335 -0.026054287 0.82900006 7.5546607e-39
0.029212384 -0.026054287 0.82900006 7.8298126e-39
0.03079143 -0.026054287 0.82900006 8.0141997e-39
0.032292385 -0.025991431 0.82700002 8.1063925e-39
0.03386762 -0.025991431 0.82700002 8.1993028e-39
0.035357144 -0.025928574 0.82500005 8.1067484e-39
0.036839049 -0.025865717 0.82300001 8.0156304e-39
0.03840667 -0.025865717 0.82300001 8.2914942e-39
0.039974287 -0.025865717 0.82300001 8.5666476e-39
0.041541908 -0.025865717 0.82300001 8.4755352e-39
0.043109525 -0.025865717 0.82300001 8.4762554e-39
0.044677146 -0.025865717 0.82300001 8.4776932e-39
0.046244767 -0.025865717 0.82300001 8.570965e-39
0.048044764 -0.025991431 0.82700002 8.7535612e-39
0.049500003 -0.025928574 0.82500005 8.937235e-39
0.051319052 -0.026054287 0.82900006 9.4896857e-39
0.052515242 -0.025865717 0.82300001 1.004179e-38
0.054477148 -0.026054287 0.82900006 1.0135433e-38
0.055785719 -0.025928574 0.82500005 1.022546e-38
0.05763524 -0.026054287 0.82900006 1.0963357e-38
0.05921429 -0.026054287 0.82900006 1.1700198e-38
0.060793336 -0.026054287 0.82900006 1.1425413e-38
0.062071431 -0.025928574 0.82500005 1.1150628e-38
0.063642859 -0.025928574 0.82500005 1.1056284e-38
0.065372385 -0.025991431 0.82700002 1.1055937e-38
0.066947624 -0.025991431 0.82700002 1.0965547e-38
0.068522863 -0.025991431 0.82700002 1.0964827e-38
0.070098102 -0.025991431 0.82700002 1.1150289e-38
0.071846671 -0.026054287 0.82900006 1.1334324e-38
0.073248573 -0.025991431 0.82700002 1.1055236e-38
0.074823812 -0.025991431 0.82700002 1.0776135e-38
0.076399051 -0.025991431 0.82700002 1.1241404e-38
0.077785723 -0.025928574 0.82500005 1.1705241e-38
0.079549529 -0.025991431 0.82700002 1.1426502e-38
0.080928579 -0.025928574 0.82500005 1.1241753e-38
0.082500003 -0.025928574 0.82500005 1.114884e-38
0.083867624 -0.025865717 0.82300001 1.1150266e-38
0.086058103 -0.026054287 0.82900006 1.1332493e-38
0.087425724 -0.025991431 0.82700002 1.1425065e-38
0.089000955 -0.025991431 0.82700002 9.9442375e-39
0.090576194 -0.025991431 0.82700002 8.3682742e-39
0.092151433 -0.025991431 0.82700002 1.2063166e-38
0.093726672 -0.025991431 0.82700002 1.5849306e-38
0.095301911 -0.025991431 0.82700002 1.7504576e-38
0.09687715 -0.025991431 0.82700002 1.915832e-38
0.098452389 -0.025991431 0.82700002 1.9065037e-38
-0.064704768 -0.025390478 0.86000001 6.916145e-39
-0.062920004 -0.02533143 0.85800004 9.4896801e-39
-0.061285719 -0.02533143 0.85800004 9.6737e-39
-0.059095241 -0.025095239 0.85000002 9.770583e-39
-0.057340957 -0.025036192 0.84800005 1.3548778e-38
-0.05572572 -0.025036192 0.84800005 1.7225796e-38
-0.053919051 -0.024947621 0.84500003 1.6953888e-38
-0.052309528 -0.024947621 0.84500003 1.6674802e-38
-0.050700005 -0.024947621 0.84500003 1.6495084e-38
-0.049090479 -0.024947621 0.84500003 1.6306023e-38
-0.047649525 -0.025036192 0.84800005 1.6125933e-38
-0.046034288 -0.025036192 0.84800005 1.593544e-38
-0.04441905 -0.025036192 0.84800005 1.566244e-38
-0.042803813 -0.025036192 0.84800005 1.5382625e-38
-0.041188575 -0.025036192 0.84800005 1.5016714e-38
-0.039573334 -0.025036192 0.84800005 1.4552873e-38
-0.037823811 -0.024947621 0.84500003 1.4370635e-38
-0.036214288 -0.024947621 0.84500003 1.4091896e-38
-0.034522861 -0.024888573 0.84300005 1.3633072e-38
-0.032839049 -0.024829526 0.84100002 1.3079182e-38
-0.031237144 -0.024829526 0.84100002 1.2430945e-38
-0.029635239 -0.024829526 0.84100002 1.1787007e-38
-0.028033335 -0.024829526 0.84100002 1.1227369e-38
-0.026368573 -0.024770478 0.83900005 1.059097e-38
-0.024770478 -0.024770478 0.83900005 9.6668673e-39
-0.023117144 -0.02471143 0.83700001 8.7521052e-39
-0.021522859 -0.02471143 0.83700001 8.3754418e-39
-0.019928573 -0.02471143 0.83700001 8.0156248e-39
-0.018334286 -0.02471143 0.83700001 7.733294e-39
-0.016740002 -0.02471143 0.83700001 7.3716903e-39
-0.015145715 -0.02471143 0.83700001 7.2712438e-39
-0.01355143 -0.02471143 0.83700001 7.18659e-39
-0.011928572 -0.024652382 0.83500004 7.2716166e-39
-0.010338096 -0.024652382 0.83500004 7.2780724e-39
-0.0087057147 -0.024534287 0.83100003 7.1790608e-39
-0.0071057146 -0.024475239 0.82900006 7.0022043e-39
-0.005526667 -0.024475239 0.82900006 6.9971807e-39
-0.0039476193 -0.024475239 0.82900006 7.0025589e-39
-0.0023685715 -0.024475239 0.82900006 6.8124293e-39
-0.00078952388 -0.024475239 0.82900006 6.634498e-39
0.00078952388 -0.024475239 0.82900006 6.629117e-39
0.0023685715 -0.024475239 0.82900006 6.6352127e-39
0.0039476193 -0.024475239 0.82900006 6.7202309e-39
0.005526667 -0.024475239 0.82900006 6.7266895e-39
0.0071057146 -0.024475239 0.82900006 6.9071333e-39
0.0086847628 -0.024475239 0.82900006 7.0032651e-39
0.01026381 -0.024475239 0.82900006 7.0893525e-39
0.011842858 -0.024475239 0.82900006 7.094393e-39
0.013421905 -0.024475239 0.82900006 7.3695589e-39
0.015000953 -0.024475239 0.82900006 7.6450626e-39
0.016580001 -0.024475239 0.82900006 7.6454186e-39
0.018159049 -0.024475239 0.82900006 7.5543019e-39
0.019738097 -0.024475239 0.82900006 7.3706309e-39
0.021368572 -0.024534287 0.83100003 7.186597e-39
0.022896191 -0.024475239 0.82900006 7.2777122e-39
0.024534287 -0.024534287 0.83100003 7.3702722e-39
0.026054287 -0.024475239 0.82900006 7.4613986e-39
0.027700001 -0.024534287 0.83100003 7.5535901e-39
0.029212384 -0.024475239 0.82900006 7.828735e-39
0.03079143 -0.024475239 0.82900006 8.0156304e-39
0.032370478 -0.024475239 0.82900006 8.1978623e-39
0.03386762 -0.024416192 0.82700002 8.3826066e-39
0.035442859 -0.024416192 0.82700002 8.1982154e-39
0.036928575 -0.024357144 0.82500005 8.0152675e-39
0.038500004 -0.024357144 0.82500005 8.1067498e-39
0.040071432 -0.024357144 0.82500005 8.1063953e-39
0.041743811 -0.024416192 0.82700002 8.1989539e-39
0.043214288 -0.024357144 0.82500005 8.2933047e-39
0.044785716 -0.024357144 0.82500005 8.3858633e-39
0.046469528 -0.024416192 0.82700002 8.3865737e-39
0.048044764 -0.024416192 0.82700002 8.568444e-39
0.049620003 -0.024416192 0.82700002 8.7528437e-39
0.051442862 -0.024534287 0.83100003 9.6726448e-39
0.052770481 -0.024416192 0.82700002 1.0504203e-38
0.05434572 -0.024416192 0.82700002 1.0600721e-38
0.056056194 -0.024475239 0.82900006 1.0594957e-38
0.05777429 -0.024534287 0.83100003 1.03162e-38
0.05921429 -0.024475239 0.82900006 9.9495834e-39
0.060646672 -0.024416192 0.82700002 9.57938e-39
0.062221907 -0.024416192 0.82700002 9.2156211e-39
0.063797146 -0.024416192 0.82700002 9.7655551e-39
0.065372385 -0.024416192 0.82700002 1.0318373e-38
0.067109525 -0.024475239 0.82900006 1.0226906e-38
0.068688579 -0.024475239 0.82900006 1.0043594e-38
0.070267625 -0.024475239 0.82900006 9.8592039e-39
0.072020002 -0.024534287 0.83100003 9.5844149e-39
0.073425718 -0.024475239 0.82900006 9.3982341e-39
0.075004764 -0.024475239 0.82900006 9.1230878e-39
0.076583818 -0.024475239 0.82900006 9.3064015e-39
0.078162864 -0.024475239 0.82900006 9.4932968e-39
0.079549529 -0.024416192 0.82700002 9.4897053e-39
0.081320956 -0.024475239 0.82900006 9.3996635e-39
0.082900003 -0.024475239 0.82900006 9.5811807e-39
0.084275246 -0.024416192 0.82700002 9.6755189e-39
0.086058103 -0.024475239 0.82900006 9.8577465e-39
0.087637149 -0.024475239 0.82900006 1.0041057e-38
0.089216195 -0.024475239 0.82900006 9.1162424e-39
0.090795241 -0.024475239 0.82900006 8.1071254e-39
0.092374295 -0.024475239 0.82900006 1.2994493e-38
0.093953341 -0.024475239 0.82900006 1.7780027e-38
0.095532387 -0.024475239 0.82900006 1.8332877e-38
0.097111434 -0.024475239 0.82900006 1.8881733e-38
0.09869048 -0.024475239 0.82900006 1.8972129e-38
-0.064704768 -0.023752382 0.86000001 6.6352617e-39
-0.063066669 -0.023752382 0.86000001 9.3989278e-39
-0.061285719 -0.023697145 0.85800004 9.4903961e-39
-0.059512384 -0.023641907 0.85600007 9.5844275e-39
-0.05788191 -0.023641907 0.85600007 1.2718357e-38
-0.056120005 -0.023586668 0.85400003 1.5946608e-38
-0.0542381 -0.023476193 0.85000002 1.6128145e-38
-0.052866671 -0.023586668 0.85400003 1.6309665e-38
-0.051120002 -0.023531429 0.85200006 1.6125278e-38
-0.049497146 -0.023531429 0.85200006 1.5941247e-38
-0.047986671 -0.023586668 0.85400003 1.5847975e-38
-0.046360005 -0.023586668 0.85400003 1.5756852e-38
-0.044628575 -0.023531429 0.85200006 1.5664292e-38
-0.043106668 -0.023586668 0.85400003 1.5482407e-38
-0.041480001 -0.023586668 0.85400003 1.5388411e-38
-0.039760001 -0.023531429 0.85200006 1.529765e-38
-0.038137145 -0.023531429 0.85200006 1.5204378e-38
-0.036428574 -0.023476193 0.85000002 1.5024291e-38
-0.034809526 -0.023476193 0.85000002 1.4927427e-38
-0.033112384 -0.023420954 0.84800005 1.4745186e-38
-0.031497143 -0.023420954 0.84800005 1.4281338e-38
-0.029705716 -0.023282859 0.84300005 1.3825362e-38
-0.028100003 -0.023282859 0.84300005 1.3544807e-38
-0.02643143 -0.023227621 0.84100002 1.3183193e-38
-0.024829526 -0.023227621 0.84100002 1.2716828e-38
-0.023227621 -0.023227621 0.84100002 1.2259094e-38
-0.021574287 -0.023172382 0.83900005 1.2071127e-38
-0.019976191 -0.023172382 0.83900005 1.1983219e-38
-0.018378096 -0.023172382 0.83900005 1.1701955e-38
-0.01678 -0.023172382 0.83900005 1.1427534e-38
-0.015181906 -0.023172382 0.83900005 1.1424316e-38
-0.01355143 -0.023117144 0.83700001 1.1518306e-38
-0.011957143 -0.023117144 0.83700001 1.1330691e-38
-0.010362858 -0.023117144 0.83700001 1.1240289e-38
-0.0087476196 -0.023061907 0.83500004 1.1146658e-38
-0.0071571432 -0.023061907 0.83500004 1.1147001e-38
-0.0055533336 -0.023006668 0.83300006 1.1054073e-38
-0.0039666668 -0.023006668 0.83300006 1.1054788e-38
-0.0023800002 -0.023006668 0.83300006 1.0961156e-38
-0.0007933334 -0.023006668 0.83300006 1.0777856e-38
0.0007933334 -0.023006668 0.83300006 1.0777151e-38
0.0023800002 -0.023006668 0.83300006 1.0870766e-38
0.0039666668 -0.023006668 0.83300006 1.0868959e-38
0.0055533336 -0.023006668 0.83300006 1.0960078e-38
0.0071057146 -0.022896191 0.82900006 1.1145901e-38
0.0087057147 -0.02295143 0.83100003 1.1237717e-38
0.01026381 -0.022896191 0.82900006 1.050122e-38
0.011842858 -0.022896191 0.82900006 9.7626278e-39
0.013421905 -0.022896191 0.82900006 8.287558e-39
0.015000953 -0.022896191 0.82900006 6.8181872e-39
0.016580001 -0.022896191 0.82900006 7.0936909e-39
0.018159049 -0.022896191 0.82900006 7.4628294e-39
0.019738097 -0.022896191 0.82900006 7.6454256e-39
0.021420002 -0.023006668 0.83300006 7.8287322e-39
0.023006668 -0.023006668 0.83300006 8.5655616e-39
0.024593335 -0.023006668 0.83300006 9.3895839e-39
0.026117144 -0.02295143 0.83100003 9.5761374e-39
0.027700001 -0.02295143 0.83100003 9.7572889e-39
0.029282859 -0.02295143 0.83100003 1.003709e-38
0.030865716 -0.02295143 0.83100003 1.0409806e-38
0.032448575 -0.02295143 0.83100003 9.6704518e-39
0.033949528 -0.022896191 0.82900006 8.9343287e-39
0.035528574 -0.022896191 0.82900006 8.382594e-39
0.03710762 -0.022896191 0.82900006 7.831951e-39
0.038780004 -0.02295143 0.83100003 7.8298098e-39
0.040362861 -0.02295143 0.83100003 7.920216e-39
0.041844763 -0.022896191 0.82900006 9.2109394e-39
0.043423813 -0.022896191 0.82900006 1.0407678e-38
0.045002859 -0.022896191 0.82900006 1.0409836e-38
0.046581909 -0.022896191 0.82900006 1.050058e-38
0.048160955 -0.022896191 0.82900006 9.5804156e-39
0.049740002 -0.022896191 0.82900006 8.7510459e-39
0.051319052 -0.022896191 0.82900006 9.9513841e-39
0.052898098 -0.022896191 0.82900006 1.1242483e-38
0.054477148 -0.022896191 0.82900006 1.1056681e-38
0.056056194 -0.022896191 0.82900006 1.0962303e-38
0.05763524 -0.022896191 0.82900006 1.0683536e-38
0.059357148 -0.02295143 0.83100003 1.0406607e-38
0.060940005 -0.02295143 0.83100003 1.0223307e-38
0.062372386 -0.022896191 0.82900006 1.0039985e-38
0.063951433 -0.022896191 0.82900006 1.0224364e-38
0.065530479 -0.022896191 0.82900006 1.0500598e-38
0.067271434 -0.02295143 0.83100003 1.040949e-38
0.069020003 -0.023006668 0.83300006 1.0409491e-38
0.070437148 -0.02295143 0.83100003 1.0225821e-38
0.072193339 -0.023006668 0.83300006 1.0042146e-38
0.073602863 -0.02295143 0.83100003 9.8581109e-39
0.075185716 -0.02295143 0.83100003 9.7662866e-39
0.076768577 -0.02295143 0.83100003 9.8581319e-39
0.078351431 -0.02295143 0.83100003 1.0042516e-38
0.079934292 -0.02295143 0.83100003 9.9496002e-39
0.081517145 -0.02295143 0.83100003 9.857406e-39
0.083100006 -0.02295143 0.83100003 1.0040718e-38
0.084682859 -0.02295143 0.83100003 1.0224741e-38
0.086680956 -0.023061907 0.83500004 1.0225091e-38
0.088271432 -0.023061907 0.83500004 1.0224709e-38
0.089646675 -0.023006668 0.83300006 9.2995141e-39
0.091233343 -0.023006668 0.83300006 8.470171e-39
0.092820004 -0.023006668 0.83300006 1.3826091e-38
0.094406672 -0.023006668 0.83300006 1.9168343e-38
0.095762864 -0.02295143 0.83100003 1.897643e-38
0.097345717 -0.02295143 0.83100003 1.8879577e-38
0.098928578 -0.02295143 0.83100003 1.8971774e-38
-0.066497147 -0.022165716 0.86200005 3.5002474e-39
-0.064704768 -0.022114288 0.86000001 6.4544494e-39
-0.063066669 -0.022114288 0.86000001 9.3049357e-39
-0.061428577 -0.022114288 0.86000001 9.304577e-39
-0.059651431 -0.022062859 0.85800004 9.3078448e-39
-0.05788191 -0.022011431 0.85600007 1.1976855e-38
-0.056251433 -0.022011431 0.85600007 1.4653379e-38
-0.054620955 -0.022011431 0.85600007 1.530235e-38
-0.053114288 -0.022062859 0.85800004 1.5942322e-38
-0.051360004 -0.022011431 0.85600007 1.5755417e-38
-0.049729526 -0.022011431 0.85600007 1.5571384e-38
-0.048099052 -0.022011431 0.85600007 1.5567795e-38
-0.046360005 -0.021960001 0.85400003 1.557138e-38
-0.044733338 -0.021960001 0.85400003 1.5571736e-38
-0.043106668 -0.021960001 0.85400003 1.5572449e-38
-0.041480001 -0.021960001 0.85400003 1.5847953e-38
-0.039853334 -0.021960001 0.85400003 1.6031262e-38
-0.038226668 -0.021960001 0.85400003 1.6032336e-38
-0.036600001 -0.021960001 0.85400003 1.5940495e-38
-0.03489143 -0.021908572 0.85200006 1.6215635e-38
-0.033268575 -0.021908572 0.85200006 1.6398587e-38
-0.031571429 -0.021857144 0.85000002 1.6123438e-38
-0.029881908 -0.021805715 0.84800005 1.5848282e-38
-0.028266668 -0.021805715 0.84800005 1.5850783e-38
-0.026557144 -0.021728573 0.84500003 1.5757509e-38
-0.024947621 -0.021728573 0.84500003 1.5758581e-38
-0.023338096 -0.021728573 0.84500003 1.5664243e-38
-0.021728573 -0.021728573 0.84500003 1.5849714e-38
-0.020119049 -0.021728573 0.84500003 1.5938311e-38
-0.01857524 -0.021805715 0.84800005 1.5756064e-38
-0.016900001 -0.021728573 0.84500003 1.5477686e-38
-0.015290477 -0.021728573 0.84500003 1.5663867e-38
-0.013648572 -0.021677144 0.84300005 1.5751398e-38
-0.012042858 -0.021677144 0.84300005 1.5476609e-38
-0.010437144 -0.021677144 0.84300005 1.5199311e-38
-0.0087685715 -0.021522859 0.83700001 1.5203259e-38
-0.0072257146 -0.021677144 0.84300005 1.5199662e-38
-0.0055800006 -0.021522859 0.83700001 1.5201445e-38
-0.0039857146 -0.021522859 0.83700001 1.5106021e-38
-0.0023914287 -0.021522859 0.83700001 1.5015977e-38
-0.00079714291 -0.021522859 0.83700001 1.4921638e-38
0.00079904764 -0.021574287 0.83900005 1.501456e-38
0.002397143 -0.021574287 0.83900005 1.5013115e-38
0.0039857146 -0.021522859 0.83700001 1.5108169e-38
0.0055800006 -0.021522859 0.83700001 1.5198217e-38
0.0071742861 -0.021522859 0.83700001 1.5387274e-38
0.0087685715 -0.021522859 0.83700001 1.5474064e-38
0.010338096 -0.02147143 0.83500004 1.3914632e-38
0.011900001 -0.021420002 0.83300006 1.2338006e-38
0.013454286 -0.021368572 0.83100003 9.1083405e-39
0.015037144 -0.021368572 0.83100003 5.8962478e-39
0.016620001 -0.021368572 0.83100003 6.6320051e-39
0.018202858 -0.021368572 0.83100003 7.2762983e-39
0.019833334 -0.021420002 0.83300006 7.8273225e-39
0.021420002 -0.021420002 0.83300006 8.3844255e-39
0.023006668 -0.021420002 0.83300006 9.9502855e-39
0.024593335 -0.021420002 0.83300006 1.1417509e-38
0.026180001 -0.021420002 0.83300006 1.1696612e-38
0.027766669 -0.021420002 0.83300006 1.1967083e-38
0.029353335 -0.021420002 0.83300006 1.2335489e-38
0.030940002 -0.021420002 0.83300006 1.270175e-38
0.032526668 -0.021420002 0.83300006 1.1047991e-38
0.034113336 -0.021420002 0.83300006 9.3935174e-39
0.035700001 -0.021420002 0.83300006 8.4737261e-39
0.037286669 -0.021420002 0.83300006 7.555011e-39
0.038873337 -0.021420002 0.83300006 7.6439752e-39
0.040460002 -0.021420002 0.83300006 7.7383359e-39
0.04204667 -0.021420002 0.83300006 1.0132889e-38
0.043633334 -0.021420002 0.83300006 1.2523837e-38
0.045220003 -0.021420002 0.83300006 1.2528499e-38
0.046806671 -0.021420002 0.83300006 1.2523117e-38
0.048393335 -0.021420002 0.83300006 1.0593137e-38
0.049980003 -0.021420002 0.83300006 8.6649613e-39
0.051690478 -0.02147143 0.83500004 1.0322675e-38
0.053280957 -0.02147143 0.83500004 1.1882815e-38
0.054740004 -0.021420002 0.83300006 1.1604451e-38
0.056461908 -0.02147143 0.83500004 1.1326768e-38
0.057913337 -0.021420002 0.83300006 1.1049087e-38
0.059642863 -0.02147143 0.83500004 1.0774305e-38
0.06108667 -0.021420002 0.83300006 1.0866865e-38
0.062673338 -0.021420002 0.83300006 1.0866861e-38
0.064260006 -0.021420002 0.83300006 1.0775022e-38
0.065846674 -0.021420002 0.83300006 1.0592075e-38
0.067433335 -0.021420002 0.83300006 1.0683916e-38
0.069185719 -0.02147143 0.83500004 1.077611e-38
0.070776194 -0.02147143 0.83500004 1.0684635e-38
0.07236667 -0.02147143 0.83500004 1.0501321e-38
0.073780008 -0.021420002 0.83300006 1.0409843e-38
0.075547621 -0.02147143 0.83500004 1.0317654e-38
0.076953337 -0.021420002 0.83300006 1.0409497e-38
0.078728579 -0.02147143 0.83500004 1.0500966e-38
0.080511436 -0.021522859 0.83700001 1.0409124e-38
0.08190953 -0.02147143 0.83500004 1.0224744e-38
0.083500005 -0.02147143 0.83500004 1.0499901e-38
0.085294291 -0.021522859 0.83700001 1.0683921e-38
0.086888574 -0.021522859 0.83700001 1.0593154e-38
0.088271432 -0.02147143 0.83500004 1.0405158e-38
0.089861907 -0.02147143 0.83500004 9.5703696e-39
0.09145239 -0.02147143 0.83500004 8.7600618e-39
0.093042865 -0.02147143 0.83500004 1.4671323e-38
0.094633341 -0.02147143 0.83500004 2.0545544e-38
0.09599334 -0.021420002 0.83300006 1.970788e-38
0.097580008 -0.021420002 0.83300006 1.8788096e-38
0.099166676 -0.021420002 0.83300006 1.8971771e-38
-0.066728577 -0.020595239 0.86500007 3.8575645e-39
-0.06485524 -0.020523811 0.86200005 6.5401752e-39
-0.063213341 -0.020523811 0.86200005 9.2141736e-39
-0.061428577 -0.020476192 0.86000001 9.305656e-39
-0.059790481 -0.020476192 0.86000001 9.4875711e-39
-0.058152385 -0.020476192 0.86000001 1.1241092e-38
-0.056514289 -0.020476192 0.86000001 1.3091461e-38
-0.054748576 -0.020428572 0.85800004 1.4656637e-38
-0.053238098 -0.020476192 0.86000001 1.621747e-38
-0.051600002 -0.020476192 0.86000001 1.5940155e-38
-0.049845718 -0.020428572 0.85800004 1.5755405e-38
-0.048211433 -0.020428572 0.85800004 1.5846519e-38
-0.046468575 -0.020380953 0.85600007 1.594015e-38
-0.044838097 -0.020380953 0.85600007 1.5755761e-38
-0.043207623 -0.020380953 0.85600007 1.5571733e-38
-0.041577145 -0.020380953 0.85600007 1.5663211e-38
-0.039946668 -0.020380953 0.85600007 1.5753608e-38
-0.038316194 -0.020380953 0.85600007 1.5663561e-38
-0.036685716 -0.020380953 0.85600007 1.5663196e-38
-0.035055239 -0.020380953 0.85600007 1.5662829e-38
-0.033346668 -0.020333335 0.85400003 1.5755386e-38
-0.031720001 -0.020333335 0.85400003 1.5571e-38
-0.03002286 -0.020285716 0.85200006 1.538949e-38
-0.028333336 -0.020238096 0.85000002 1.5297304e-38
-0.026714288 -0.020238096 0.85000002 1.5298385e-38
-0.025036192 -0.020190477 0.84800005 1.5205834e-38
-0.023420954 -0.020190477 0.84800005 1.5207635e-38
-0.021805715 -0.020190477 0.84800005 1.5204772e-38
-0.020238096 -0.020238096 0.85000002 1.5296246e-38
-0.018662859 -0.020285716 0.85200006 1.5295885e-38
-0.017000001 -0.020238096 0.85000002 1.5297666e-38
-0.015380953 -0.020238096 0.85000002 1.5388411e-38
-0.013729525 -0.020190477 0.84800005 1.5571722e-38
-0.01207143 -0.020119049 0.84500003 1.5386973e-38
-0.010461905 -0.020119049 0.84500003 1.5295502e-38
-0.0088523813 -0.020119049 0.84500003 1.5295866e-38
-0.0072428575 -0.020119049 0.84500003 1.5297299e-38
-0.0056333337 -0.020119049 0.84500003 1.5111471e-38
-0.0040142857 -0.02007143 0.84300005 1.4927799e-38
-0.0024028574 -0.020023812 0.84100002 1.492708e-38
-0.00080095243 -0.020023812 0.84100002 1.5020356e-38
0.00080095243 -0.020023812 0.84100002 1.5110043e-38
0.0024028574 -0.020023812 0.84100002 1.5202232e-38
0.004004762 -0.020023812 0.84100002 1.5018555e-38
0.0056066671 -0.020023812 0.84100002 1.4928524e-38
0.0072257146 -0.02007143 0.84300005 1.483634e-38
0.0088314293 -0.02007143 0.84300005 1.4836672e-38
0.010437144 -0.02007143 0.84300005 1.381928e-38
0.012014287 -0.020023812 0.84100002 1.2801524e-38
0.013616191 -0.020023812 0.84100002 1.0677079e-38
0.015181906 -0.019976191 0.83900005 8.5569674e-39
0.016740002 -0.019928573 0.83700001 9.3895825e-39
0.018334286 -0.019928573 0.83700001 1.0121775e-38
0.019928573 -0.019928573 0.83700001 1.0679981e-38
0.021522859 -0.019928573 0.83700001 1.1145607e-38
0.023061907 -0.019880954 0.83500004 1.1511147e-38
0.02471143 -0.019928573 0.83700001 1.1787015e-38
0.026305716 -0.019928573 0.83700001 1.1876342e-38
0.027900001 -0.019928573 0.83700001 1.1966727e-38
0.029564764 -0.019976191 0.83900005 1.2148588e-38
0.03116286 -0.019976191 0.83900005 1.2330467e-38
0.032760955 -0.019976191 0.83900005 1.1320994e-38
0.034359049 -0.019976191 0.83900005 1.0311165e-38
0.035957146 -0.019976191 0.83900005 9.484648e-39
0.03755524 -0.019976191 0.83900005 8.6581145e-39
0.039060004 -0.019928573 0.83700001 8.4715597e-39
0.040557146 -0.019880954 0.83500004 8.3786704e-39
0.042147622 -0.019880954 0.83500004 1.0778613e-38
0.043738097 -0.019880954 0.83500004 1.3168837e-38
0.045220003 -0.019833334 0.83300006 1.2707137e-38
0.046919052 -0.019880954 0.83500004 1.2337657e-38
0.048393335 -0.019833334 0.83300006 1.1419674e-38
0.050100002 -0.019880954 0.83500004 1.0594234e-38
0.051814288 -0.019928573 0.83700001 1.1423626e-38
0.053408574 -0.019928573 0.83700001 1.2341268e-38
0.055002861 -0.019928573 0.83700001 1.1878866e-38
0.056732386 -0.019976191 0.83900005 1.1507923e-38
0.058052383 -0.019880954 0.83500004 1.1324596e-38
0.059642863 -0.019880954 0.83500004 1.1141285e-38
0.061233338 -0.019880954 0.83500004 1.1141646e-38
0.062823817 -0.019880954 0.83500004 1.1142007e-38
0.064414293 -0.019880954 0.83500004 1.1050173e-38
0.066004768 -0.019880954 0.83500004 1.1050892e-38
0.067757145 -0.019928573 0.83700001 1.1142729e-38
0.069185719 -0.019880954 0.83500004 1.1234923e-38
0.070945717 -0.019928573 0.83700001 1.1051611e-38
0.072540008 -0.019928573 0.83700001 1.0868301e-38
0.07413429 -0.019928573 0.83700001 1.0776469e-38
0.075728573 -0.019928573 0.83700001 1.0684993e-38
0.077322863 -0.019928573 0.83700001 1.0684277e-38
0.07910572 -0.019976191 0.83900005 1.0683909e-38
0.08108858 -0.02007143 0.84300005 1.0684258e-38
0.082301907 -0.019976191 0.83900005 1.0775754e-38
0.084100008 -0.020023812 0.84100002 1.0959084e-38
0.085701913 -0.020023812 0.84100002 1.123458e-38
0.087303817 -0.020023812 0.84100002 1.0683197e-38
0.088694289 -0.019976191 0.83900005 1.0130736e-38
0.090077147 -0.019928573 0.83700001 1.085859e-38
0.091671437 -0.019928573 0.83700001 1.1695606e-38
0.09326572 -0.019928573 0.83700001 1.6411952e-38
0.095086671 -0.019976191 0.83900005 2.1195594e-38
0.096454293 -0.019928573 0.83700001 1.9894056e-38
0.098048575 -0.019928573 0.83700001 1.8694462e-38
0.099642865 -0.019928573 0.83700001 1.8880291e-38
-0.066728577 -0.01894762 0.86500007 4.1477846e-39
-0.065080956 -0.01894762 0.86500007 6.6348582e-39
-0.063213341 -0.018881906 0.86200005 9.0290579e-39
-0.061571434 -0.018881906 0.86200005 9.3074538e-39
-0.059929527 -0.018881906 0.86200005 9.5819051e-39
-0.058287624 -0.018881906 0.86200005 1.0500281e-38
-0.056645717 -0.018881906 0.86200005 1.1431225e-38
-0.054876193 -0.018838096 0.86000001 1.3923016e-38
-0.053361908 -0.018881906 0.86200005 1.6401491e-38
-0.051720005 -0.018881906 0.86200005 1.6124185e-38
-0.050078098 -0.018881906 0.86200005 1.5847957e-38
-0.048323814 -0.018838096 0.86000001 1.6030906e-38
-0.046577144 -0.018794287 0.85800004 1.6214936e-38
-0.04494286 -0.018794287 0.85800004 1.5847237e-38
-0.043308575 -0.018794287 0.85800004 1.54799e-38
-0.04167429 -0.018794287 0.85800004 1.547919e-38
-0.039946668 -0.018750478 0.85600007 1.5387705e-38
-0.038316194 -0.018750478 0.85600007 1.5388415e-38
-0.036771432 -0.018794287 0.85800004 1.5295136e-38
-0.035055239 -0.018750478 0.85600007 1.5200781e-38
-0.033424765 -0.018750478 0.85600007 1.5016757e-38
-0.031794287 -0.018750478 0.85600007 1.5016047e-38
-0.030093335 -0.018706668 0.85400003 1.4923851e-38
-0.028466668 -0.018706668 0.85400003 1.4833809e-38
-0.026777145 -0.018662859 0.85200006 1.473982e-38
-0.025095239 -0.018619049 0.85000002 1.4741614e-38
-0.023476193 -0.018619049 0.85000002 1.4647633e-38
-0.021908572 -0.018662859 0.85200006 1.4648716e-38
-0.020285716 -0.018662859 0.85200006 1.4555801e-38
-0.018662859 -0.018662859 0.85200006 1.4833818e-38
-0.017040001 -0.018662859 0.85200006 1.5017842e-38
-0.015417144 -0.018662859 0.85200006 1.5204377e-38
-0.013761906 -0.018619049 0.85000002 1.529442e-38
-0.012114286 -0.01857524 0.84800005 1.5295139e-38
-0.010499048 -0.01857524 0.84800005 1.5295142e-38
-0.0088838097 -0.01857524 0.84800005 1.5295503e-38
-0.0072685718 -0.01857524 0.84800005 1.5295498e-38
-0.0056533339 -0.01857524 0.84800005 1.501891e-38
-0.0040380955 -0.01857524 0.84800005 1.4743404e-38
-0.0024142859 -0.018509526 0.84500003 1.4927075e-38
-0.00080476195 -0.018509526 0.84500003 1.5019271e-38
0.00080476195 -0.018509526 0.84500003 1.5202585e-38
0.0024085715 -0.018465716 0.84300005 1.52937e-38
0.0040142857 -0.018465716 0.84300005 1.4926714e-38
0.0056333337 -0.018509526 0.84500003 1.4559731e-38
0.0072257146 -0.018465716 0.84300005 1.43757e-38
0.0088523813 -0.018509526 0.84500003 1.4189865e-38
0.010461905 -0.018509526 0.84500003 1.3724579e-38
0.012042858 -0.018465716 0.84300005 1.3166354e-38
0.013680954 -0.018509526 0.84500003 1.2241145e-38
0.015254287 -0.018465716 0.84300005 1.1230604e-38
0.016860001 -0.018465716 0.84300005 1.2155067e-38
0.018378096 -0.018378096 0.83900005 1.2979807e-38
0.019976191 -0.018378096 0.83900005 1.344151e-38
0.021522859 -0.018334286 0.83700001 1.3898162e-38
0.023117144 -0.018334286 0.83700001 1.3069835e-38
0.024770478 -0.018378096 0.83900005 1.2150405e-38
0.026368573 -0.018378096 0.83900005 1.2055341e-38
0.028033335 -0.018421905 0.84100002 1.1872378e-38
0.029635239 -0.018421905 0.84100002 1.1962053e-38
0.031237144 -0.018421905 0.84100002 1.1963127e-38
0.032839049 -0.018421905 0.84100002 1.1594349e-38
0.034440953 -0.018421905 0.84100002 1.1137686e-38
0.036042858 -0.018421905 0.84100002 1.0403006e-38
0.037644763 -0.018421905 0.84100002 9.6675931e-39
0.039246671 -0.018421905 0.84100002 9.3892056e-39
0.040848576 -0.018421905 0.84100002 9.0294208e-39
0.042349525 -0.018378096 0.83900005 1.1433668e-38
0.044157147 -0.018465716 0.84300005 1.3720937e-38
0.045437146 -0.018334286 0.83700001 1.2885798e-38
0.046919052 -0.018290477 0.83500004 1.2059645e-38
0.048741907 -0.018378096 0.83900005 1.2245475e-38
0.050340004 -0.018378096 0.83900005 1.2432029e-38
0.052061908 -0.018421905 0.84100002 1.261966e-38
0.053791434 -0.018465716 0.84300005 1.2800095e-38
0.055528574 -0.018509526 0.84500003 1.2245129e-38
0.057340957 -0.01857524 0.84800005 1.1600834e-38
0.058747623 -0.018509526 0.84500003 1.1599387e-38
0.060071431 -0.018421905 0.84100002 1.1508266e-38
0.061673336 -0.018421905 0.84100002 1.1507906e-38
0.06327524 -0.018421905 0.84100002 1.1416792e-38
0.064877145 -0.018421905 0.84100002 1.1416796e-38
0.06647905 -0.018421905 0.84100002 1.1417515e-38
0.067919053 -0.018378096 0.83900005 1.1509352e-38
0.069682859 -0.018421905 0.84100002 1.1601545e-38
0.071284764 -0.018421905 0.84100002 1.1418233e-38
0.072886668 -0.018421905 0.84100002 1.1234924e-38
0.074842863 -0.018509526 0.84500003 1.1142736e-38
0.076723814 -0.01857524 0.84800005 1.1051256e-38
0.078339055 -0.01857524 0.84800005 1.09587e-38
0.079954289 -0.01857524 0.84800005 1.0867577e-38
0.08156953 -0.01857524 0.84800005 1.1051241e-38
0.082890481 -0.018509526 0.84500003 1.1234564e-38
0.084300004 -0.018465716 0.84300005 1.1509006e-38
0.085905723 -0.018465716 0.84300005 1.1785228e-38
0.087511435 -0.018465716 0.84300005 1.0774318e-38
0.088905722 -0.018421905 0.84100002 9.7562323e-39
0.090292387 -0.018378096 0.83900005 1.2129243e-38
0.092109531 -0.018421905 0.84100002 1.4554362e-38
0.093711436 -0.018421905 0.84100002 1.8176214e-38
0.09531334 -0.018421905 0.84100002 2.1741949e-38
0.096915245 -0.018421905 0.84100002 2.0162027e-38
0.098282866 -0.018378096 0.83900005 1.8602985e-38
0.10011905 -0.018421905 0.84100002 1.8881372e-38
0.10172096 -0.018421905 0.84100002 1.9156878e-38
-0.066728577 -0.0173 0.86500007 4.7759292e-39
-0.065231435 -0.017340001 0.86700004 7.0893483e-39
-0.063580006 -0.017340001 0.86700004 9.397825e-39
-0.061785717 -0.0173 0.86500007 9.4904102e-39
-0.060138099 -0.0173 0.86500007 9.6744455e-39
-0.058490481 -0.0173 0.86500007 1.0134345e-38
-0.05684286 -0.0173 0.86500007 1.059751e-38
-0.055003814 -0.017240001 0.86200005 1.345665e-38
-0.053547621 -0.0173 0.86500007 1.640256e-38
-0.051720005 -0.017240001 0.86200005 1.6124542e-38
-0.050078098 -0.017240001 0.86200005 1.5847956e-38
-0.048436195 -0.017240001 0.86200005 1.5939428e-38
-0.046685718 -0.017200001 0.86000001 1.6031264e-38
-0.045047622 -0.017200001 0.86000001 1.5755757e-38
-0.043409526 -0.017200001 0.86000001 1.5479903e-38
-0.04167429 -0.01716 0.85800004 1.5480273e-38
-0.040040001 -0.01716 0.85800004 1.5480622e-38
-0.038405716 -0.01716 0.85800004 1.4743416e-38
-0.036771432 -0.01716 0.85800004 1.3918323e-38
-0.035137147 -0.01716 0.85800004 1.3636349e-38
-0.033424765 -0.017120002 0.85600007 1.345161e-38
-0.031794287 -0.017120002 0.85600007 1.2989213e-38
-0.030163812 -0.017120002 0.85600007 1.261935e-38
-0.028466668 -0.017080002 0.85400003 1.2067251e-38
-0.026840001 -0.017080002 0.85400003 1.1421887e-38
-0.025213335 -0.017080002 0.85400003 1.1606629e-38
-0.023531429 -0.017040001 0.85200006 1.1788872e-38
-0.021908572 -0.017040001 0.85200006 1.1882508e-38
-0.020333335 -0.017080002 0.85400003 1.1974343e-38
-0.018706668 -0.017080002 0.85400003 1.2160524e-38
-0.017080002 -0.017080002 0.85400003 1.2439619e-38
-0.015453334 -0.017080002 0.85400003 1.2623292e-38
-0.013794286 -0.017040001 0.85200006 1.2902031e-38
-0.012142858 -0.017000001 0.85000002 1.3084989e-38
-0.01052381 -0.017000001 0.85000002 1.3365517e-38
-0.0089047626 -0.017000001 0.85000002 1.3731066e-38
-0.0072857146 -0.017000001 0.85000002 1.4192389e-38
-0.0056666671 -0.017000001 0.85000002 1.4374976e-38
-0.0040476192 -0.017000001 0.85000002 1.4650486e-38
-0.0024285717 -0.017000001 0.85000002 1.4743042e-38
-0.00080952386 -0.017000001 0.85000002 1.4927429e-38
0.00080761907 -0.016960001 0.84800005 1.4925991e-38
0.0024228573 -0.016960001 0.84800005 1.4925273e-38
0.0040380955 -0.016960001 0.84800005 1.4464302e-38
0.0056533339 -0.016960001 0.84800005 1.409946e-38
0.0072428575 -0.016900001 0.84500003 1.4005101e-38
0.0088838097 -0.016960001 0.84800005 1.3913989e-38
0.010499048 -0.016960001 0.84800005 1.363167e-38
0.012114286 -0.016960001 0.84800005 1.3347511e-38
0.013729525 -0.016960001 0.84800005 1.2795019e-38
0.015344763 -0.016960001 0.84800005 1.2245104e-38
0.016960001 -0.016960001 0.84800005 1.261426e-38
0.018465716 -0.016860001 0.84300005 1.2985917e-38
0.02007143 -0.016860001 0.84300005 1.3163857e-38
0.021857144 -0.017000001 0.85000002 1.3435758e-38
0.023476193 -0.017000001 0.85000002 1.2885084e-38
0.024947621 -0.016900001 0.84500003 1.242447e-38
0.026557144 -0.016900001 0.84500003 1.2332992e-38
0.028166668 -0.016900001 0.84500003 1.2240436e-38
0.029776193 -0.016900001 0.84500003 1.2240792e-38
0.031385716 -0.016900001 0.84500003 1.2241507e-38
0.032917146 -0.016860001 0.84300005 1.1873443e-38
0.034604765 -0.016900001 0.84500003 1.1506823e-38
0.036214288 -0.016900001 0.84500003 1.0771425e-38
0.037734289 -0.016860001 0.84300005 1.012857e-38
0.039340004 -0.016860001 0.84300005 9.9445318e-39
0.040945716 -0.016860001 0.84300005 9.7633957e-39
0.042551432 -0.016860001 0.84300005 1.133108e-38
0.044261906 -0.016900001 0.84500003 1.2894788e-38
0.045871433 -0.016900001 0.84500003 1.2426634e-38
0.047480956 -0.016900001 0.84500003 1.2054987e-38
0.049264766 -0.016960001 0.84800005 1.2151127e-38
0.050700005 -0.016900001 0.84500003 1.2248726e-38
0.052495241 -0.016960001 0.84800005 1.2063643e-38
0.0542381 -0.017000001 0.85000002 1.1973225e-38
0.055857148 -0.017000001 0.85000002 1.187886e-38
0.057476193 -0.017000001 0.85000002 1.1785221e-38
0.059095241 -0.017000001 0.85000002 1.1693376e-38
0.06071429 -0.017000001 0.85000002 1.1693012e-38
0.062333338 -0.017000001 0.85000002 1.1601169e-38
0.063952386 -0.017000001 0.85000002 1.1600459e-38
0.065571435 -0.017000001 0.85000002 1.1600824e-38
0.067190483 -0.017000001 0.85000002 1.169302e-38
0.068080954 -0.01682 0.84100002 1.1876332e-38
0.069848575 -0.016860001 0.84300005 1.2151479e-38
0.071454294 -0.016860001 0.84300005 1.1692659e-38
0.073233336 -0.016900001 0.84500003 1.1326042e-38
0.074842863 -0.016900001 0.84500003 1.1234573e-38
0.076723814 -0.016960001 0.84800005 1.1234566e-38
0.078339055 -0.016960001 0.84800005 1.1051246e-38
0.080142863 -0.017000001 0.85000002 1.086829e-38
0.08156953 -0.016960001 0.84800005 1.0960123e-38
0.082890481 -0.016900001 0.84500003 1.1051245e-38
0.084500007 -0.016900001 0.84500003 1.1143083e-38
0.086109526 -0.016900001 0.84500003 1.1234567e-38
0.087719053 -0.016900001 0.84500003 1.0130037e-38
0.08932858 -0.016900001 0.84500003 9.1123202e-39
0.090938099 -0.016900001 0.84500003 1.2423785e-38
0.092547625 -0.016900001 0.84500003 1.575757e-38
0.094157152 -0.016900001 0.84500003 1.8623569e-38
0.095766671 -0.016900001 0.84500003 2.1464655e-38
0.097145721 -0.016860001 0.84300005 1.9983732e-38
0.09851715 -0.01682 0.84100002 1.851115e-38
0.099880956 -0.01678 0.83900005 1.8788823e-38
-0.065231435 -0.015688572 0.86700004 7.5485244e-39
-0.063580006 -0.015688572 0.86700004 9.6701015e-39
-0.061928574 -0.015688572 0.86700004 9.6737224e-39
-0.060277145 -0.015688572 0.86700004 9.674084e-39
-0.058625717 -0.015688572 0.86700004 9.6726532e-39
-0.056974288 -0.015688572 0.86700004 9.6777203e-39
-0.055195242 -0.015652383 0.86500007 1.2994965e-38
-0.053671431 -0.015688572 0.86700004 1.6307146e-38
-0.051900003 -0.015652383 0.86500007 1.6032001e-38
-0.050252385 -0.015652383 0.86500007 1.5756127e-38
-0.048604764 -0.015652383 0.86500007 1.5755759e-38
-0.046957146 -0.015652383 0.86500007 1.5755398e-38
-0.045152385 -0.015598096 0.86200005 1.5663922e-38
-0.043510478 -0.015598096 0.86200005 1.5480258e-38
-0.041771431 -0.015561906 0.86000001 1.557246e-38
-0.040133335 -0.015561906 0.86000001 1.5568134e-38
-0.038495239 -0.015561906 0.86000001 1.4094441e-38
-0.036857147 -0.015561906 0.86000001 1.2530723e-38
-0.035219051 -0.015561906 0.86000001 1.2158356e-38
-0.033580955 -0.015561906 0.86000001 1.1792088e-38
-0.031942859 -0.015561906 0.86000001 1.1053455e-38
-0.030304763 -0.015561906 0.86000001 1.0318402e-38
-0.028600002 -0.015525715 0.85800004 9.2095521e-39
-0.026902858 -0.015489525 0.85600007 8.1096631e-39
-0.025272382 -0.015489525 0.85600007 8.4737625e-39
-0.023586668 -0.015453334 0.85400003 8.8447086e-39
-0.021960001 -0.015453334 0.85400003 9.1184397e-39
-0.020380953 -0.015489525 0.85600007 9.3049819e-39
-0.018750478 -0.015489525 0.85600007 9.5779787e-39
-0.017080002 -0.015453334 0.85400003 9.8577914e-39
-0.015453334 -0.015453334 0.85400003 1.0130071e-38
-0.013794286 -0.015417144 0.85200006 1.041203e-38
-0.01217143 -0.015417144 0.85200006 1.086905e-38
-0.010548572 -0.015417144 0.85200006 1.1333981e-38
-0.0089047626 -0.015380953 0.85000002 1.2254502e-38
-0.0072857146 -0.015380953 0.85000002 1.3084259e-38
-0.0056666671 -0.015380953 0.85000002 1.3821822e-38
-0.0040571433 -0.015417144 0.85200006 1.4465028e-38
-0.0024285717 -0.015380953 0.85000002 1.465121e-38
-0.00080952386 -0.015380953 0.85000002 1.4743044e-38
0.00080761907 -0.015344763 0.84800005 1.4649054e-38
0.0024228573 -0.015344763 0.84800005 1.446286e-38
0.0040380955 -0.015344763 0.84800005 1.399793e-38
0.0056666671 -0.015380953 0.85000002 1.3539469e-38
0.0072685718 -0.015344763 0.84800005 1.3630944e-38
0.0088838097 -0.015344763 0.84800005 1.3633098e-38
0.01052381 -0.015380953 0.85000002 1.3540189e-38
0.012142858 -0.015380953 0.85000002 1.3442935e-38
0.013761906 -0.015380953 0.85000002 1.3346041e-38
0.015380953 -0.015380953 0.85000002 1.3162741e-38
0.017040001 -0.015417144 0.85200006 1.3071277e-38
0.018619049 -0.015380953 0.85000002 1.2887613e-38
0.020285716 -0.015417144 0.85200006 1.2883675e-38
0.021908572 -0.015417144 0.85200006 1.2884739e-38
0.023531429 -0.015417144 0.85200006 1.279361e-38
0.025154287 -0.015417144 0.85200006 1.2610297e-38
0.026777145 -0.015417144 0.85200006 1.2611374e-38
0.028266668 -0.015344763 0.84800005 1.2609943e-38
0.029881908 -0.015344763 0.84800005 1.2610306e-38
0.031497143 -0.015344763 0.84800005 1.2517743e-38
0.032995239 -0.015290477 0.84500003 1.215039e-38
0.034604765 -0.015290477 0.84500003 1.1782335e-38
0.036214288 -0.015290477 0.84500003 1.1230607e-38
0.037823811 -0.015290477 0.84500003 1.0588472e-38
0.039433338 -0.015290477 0.84500003 1.0496989e-38
0.041042861 -0.015290477 0.84500003 1.0405887e-38
0.042652383 -0.015290477 0.84500003 1.1232063e-38
0.04441905 -0.015344763 0.84800005 1.1967816e-38
0.046034288 -0.015344763 0.84800005 1.1962785e-38
0.04776191 -0.015380953 0.85000002 1.1963504e-38
0.049497146 -0.015417144 0.85200006 1.2055341e-38
